# .PCD v0.7 - Point Cloud Data file format
VERSION 0.7
FIELDS x y z intensity
SIZE 4 4 4 4
TYPE F F F F
COUNT 1 1 1 1
WIDTH 1332
HEIGHT 1
VIEWPOINT 0 0 0 1 0 0 0
POINTS 1332
DATA ascii
7.9020386 8.0467319 8.810092 9
9.435564 8.1653881 8.9043388 14.25
9.8885441 8.0245237 8.9484777 14.453125
10.817991 8.1225567 8.9811172 12
11.466836 8.1030979 8.9855423 9
14.175164 8.1698523 8.913372 10
14.91993 8.0180368 8.9430399 11
-3.7329841 8.340683 8.8724194 2
-3.4007998 8.3289957 8.9337864 2
-3.2917929 8.2744751 8.8485165 2
-3.1293457 8.2183914 8.8018389 2
-2.537205 8.354208 8.8082438 13
-1.7591827 8.3373547 8.9055033 12.340427
-1.354614 8.3780327 8.8804302 13.5
-0.50213325 8.218935 8.9169846 11.738634
-0.26173943 8.2511921 8.9241333 12
-0.042777631 8.2475863 8.8925114 11.73214
0.12230878 8.3122406 8.9496193 12.837564
4.0937624 8.3204288 8.9767513 10.059326
4.3516068 8.3489923 8.9470854 8.6731768
4.4994869 8.2632694 8.9268446 6.5
4.6988196 8.2524309 8.9126329 5.25
4.9332027 8.320262 8.92066 8.5625
5.1192589 8.2786083 8.8797626 0.5
5.2811308 8.3246546 8.985857 11
5.4695606 8.2427273 8.8726673 10.617949
5.6292677 8.3248215 8.813447 7
13.099183 8.2334671 8.8222637 11
13.411046 8.3401165 8.8995762 11
14.720375 8.204999 8.957593 11
18.592222 8.3168249 8.9776402 11
-3.6417825 8.4054308 8.8549652 9
-3.4671693 8.5030651 8.8992434 6.5
-3.3177505 8.5625429 8.8544178 13.181396
-2.8350277 8.4733171 8.8890533 11.229818
-2.6044211 8.4310999 8.9879541 12
-2.5115905 8.5465136 8.8956394 11.8125
-2.0479732 8.5110807 8.8162575 5.5
-1.0839413 8.5906544 8.8711843 1.8015625
-0.80603844 8.5619526 8.8968563 1
-0.47328889 8.5437803 8.8041553 15
0.13576241 8.4444027 8.9763241 13.599609
3.15326 8.5492687 8.8793707 11
4.165988 8.4627924 8.9274817 13.625
4.330533 8.4873352 8.9389448 12.511719
4.4392748 8.4779758 8.8817444 10
4.6538286 8.4896889 8.9566269 11.584578
4.8682508 8.5303373 8.9667568 11.875
5.1111498 8.5664358 8.8272438 6.75
5.3155098 8.4976463 8.8809624 9.75
5.7888961 8.5165787 8.8662872 9
5.9091129 8.4411316 8.8910904 10.756338
6.1704998 8.4477186 8.9668179 12
6.9369831 8.5122671 8.9757814 12
7.3325377 8.4838982 8.9185524 10
8.5581055 8.5651331 8.9172392 13
9.4412632 8.4797592 8.8542957 13
9.8829432 8.5464573 8.9299316 13
12.209036 8.5687199 8.8675938 10.5
14.255625 8.5374289 8.9845533 12.5
14.604796 8.4322739 8.935668 10.5
-2.6353445 8.6900988 8.8386526 10
-2.5602107 8.6750298 8.8471756 7.5
-2.3089581 8.7695131 8.9249706 1.5
-2.024385 8.6203775 8.8783073 7
-1.8704013 8.6787653 8.9418688 13.291531
-1.0335066 8.6540899 8.8467617 2.625
-0.82468414 8.7756977 8.9707737 2
4.3178873 8.65065 8.9369898 12.4375
4.9008665 8.6657391 8.9412003 12.449932
5.1031713 8.660388 8.8889675 6.875
5.2843552 8.6603985 8.8753681 8
5.7777543 8.6857147 8.8344975 12
5.8561425 8.7188692 8.8491974 7.5
6.1301708 8.6723213 8.8761711 1.25
6.6701946 8.609271 8.9503555 12.164873
8.9897957 8.6173296 8.9164257 13
12.439179 8.7115173 8.9312181 12
15.826914 8.663744 8.8681936 10.5
16.160681 8.6942759 8.9230194 9.5
-3.1232767 8.8593826 8.8777132 13
-2.7086062 8.8139915 8.9769306 6
-2.5384271 8.8643036 8.9010839 11.5
-2.33322 8.8584929 8.9422703 9.447917
-2.1771641 8.8035145 8.8768682 3
-1.8509411 8.905468 8.8968067 11.051161
-1.7470938 8.8503904 8.9652691 12
-1.5387897 8.9360447 8.9212627 6.5
-1.317302 8.9261999 8.9805336 6.234375
-1.1132717 8.9237795 8.9064312 3.875
-0.95998049 8.9504185 8.9665165 7.3350697
-0.72544432 8.9599371 8.8671398 6.328125
-0.53840292 8.9720354 8.824297 9.5
-0.077523991 8.8845863 8.8630085 0
0.05910024 8.9469929 8.925415 9.0625
4.2331619 8.8904104 8.9575043 13.125
4.7816019 8.9509678 8.9994402 10
4.9124527 8.9458237 8.9668798 8
5.1075382 8.8842201 8.8827572 10.25
5.3339653 8.94314 8.9672651 14.041445
5.4075866 8.8894844 8.8725395 13
5.8973637 8.8921623 8.8463364 3
6.0491652 8.8770571 8.9318562 6.25
6.3518896 8.8539906 8.8266926 13
7.4701738 8.8588524 8.9452648 13.5
8.0966053 8.9509716 8.9907274 12.5
17.809561 8.9988785 8.9577551 12
-2.8533924 9.079031 8.8786736 14.17908
-2.6340551 9.1384087 8.8128138 5.5
-2.5684328 9.1728115 8.8251858 6
-2.3254867 9.0706158 8.9282827 12.21875
-2.0947478 9.0279932 8.951807 11.075367
-1.8702348 9.1882801 8.8315153 9
-1.6177735 9.1284342 8.8554144 8.583333
-1.4541988 9.1381779 8.8798141 12.612194
-1.3104753 9.0984726 8.9342394 12.928798
-1.0645977 9.1348772 8.9146395 12.079952
-0.88647532 9.0876951 8.8636236 9.1535149
-0.66680586 9.1353159 8.8901081 12.693504
-0.58895719 9.1073484 8.8287802 14.5
-0.30967402 9.1784716 8.9589252 8.625
-0.046530966 9.1462345 8.9266119 10.243225
0.14882877 9.1432934 8.969841 13.170156
0.24998885 9.1284428 8.8659563 6.7475586
0.42913422 9.1762552 8.8469305 5.265625
4.5361147 9.1333408 8.960701 12
4.7271452 9.1545372 8.9331465 11.03125
4.8795042 9.1694651 8.9623756 12.682236
5.0801506 9.1142149 8.990675 11
5.7848597 9.0743599 8.8733997 6.9392519
5.9226112 9.1154709 8.8838539 9.489583
6.0977507 9.1036167 8.9523087 12.162342
6.5456986 9.0804482 8.976572 7.5243053
8.79284 9.0856276 8.8762522 11
9.2764301 9.1163273 8.896637 11
11.940487 9.0093765 8.9660311 13
12.181165 9.056263 8.8670778 12
13.698881 9.0140495 8.9584379 11
14.278989 9.0125942 8.9299755 13.5
14.449725 9.1145926 8.8152418 13
-2.725733 9.3729496 8.865593 6.5
-2.5087533 9.3048668 8.9292431 6.5
-2.1841283 9.2372131 8.9908295 7
-1.8510424 9.3362236 8.919817 14.435209
-1.6791179 9.2559319 8.820838 11.75
-1.5183768 9.3168373 8.8905544 12.4222
-1.2537911 9.2686577 8.8734884 10.626953
-1.0980442 9.3360996 8.8821058 13.119141
-0.91370004 9.326849 8.8706093 13.796236
-0.69524831 9.2675247 8.8723679 13.380834
-0.54310036 9.2537584 8.8885746 13.80307
-0.29515997 9.3066683 8.9526777 10.674747
-0.076062158 9.3004198 8.9438086 13.89398
0.16326283 9.2549782 8.9493847 13.884731
0.30287486 9.2660141 8.8950844 14.143555
0.44668475 9.3188686 8.8220711 13.5
4.2645993 9.2471189 8.8197508 13
4.7294912 9.3093967 8.912899 13.675842
4.950017 9.304863 8.9733562 14.08667
5.0962515 9.3202963 8.8997517 12.75
5.343482 9.2909584 8.8829393 12
5.6567631 9.3016872 8.9639759 12.75
5.9243994 9.3532314 8.9388466 11.418562
6.113719 9.3231621 8.9322977 11.4375
6.6688976 9.2624569 8.8877373 12
12.965807 9.3563156 8.9303885 12.75
14.312963 9.2547283 8.872036 12
15.194067 9.257513 8.869194 12
-2.9346089 9.4840622 8.8700066 9.9492188
-2.6971507 9.5301132 8.9117298 10.296875
-2.5465653 9.4350624 8.9596996 12.864583
-1.4576678 9.4593344 8.9029369 14.5
-1.2830222 9.4262238 8.9236488 13.390191
-1.0817163 9.4377499 8.8703108 15
-0.85764205 9.491889 8.9430141 9.25
-0.67975855 9.4368439 8.901844 14.787354
-0.5569849 9.5156326 8.867384 14.507111
-0.34783894 9.4731236 8.9213409 14.568447
-0.052062642 9.445734 8.8926868 14.931945
0.059290856 9.451313 8.8707333 11.640892
0.3082158 9.5069962 8.8859396 12.007812
0.45284438 9.4741936 8.8447962 14.765625
2.9202607 9.5849514 8.8354712 14
4.7769403 9.4528761 8.9623137 13.375
4.9591899 9.4966621 8.8938293 15
5.125494 9.5290051 8.916316 9.875
5.3095632 9.5334187 8.9360409 5
5.9421473 9.4674435 8.9646339 13.25
6.1058674 9.4887295 8.9132261 13.537793
6.9828596 9.462122 8.902792 12.349392
7.4235425 9.5134754 8.9268675 13
9.287817 9.544981 8.9527054 3
14.599117 9.407259 8.9861488 10.25
16.132153 9.4346409 8.9688768 12.322917
-5.6507325 9.7945652 8.9379702 9
-5.4945617 9.7535992 8.983984 8.625
-3.0388308 9.6869087 8.945343 10.732773
-2.884922 9.6121235 8.8666115 11
-2.7043033 9.6233692 8.8513288 13.75
-2.5293298 9.6937466 8.9162998 14.338532
-2.3700781 9.6857729 8.9640436 15
-2.074358 9.6112728 8.9927292 15
-1.1758451 9.6361256 8.9907131 10
-0.90187168 9.7452955 8.8567619 5.5
-0.60808456 9.6130724 8.8355341 14
-0.45478874 9.6874237 8.9477291 12.945312
-0.33587018 9.7026577 8.9032841 10.375
-0.029221501 9.7338438 8.9186306 9.765625
0.091213003 9.7171764 8.8825054 12.159281
0.22639029 9.6861496 8.8684454 9.9652777
4.3975978 9.6142797 8.9280243 0
4.955533 9.6936369 8.9664078 2.5
5.2458372 9.6323738 8.9255466 4
5.4592247 9.6816254 8.9003944 10.5
5.6325912 9.6719904 8.9816132 13
5.8640018 9.6995459 8.9235153 14.184546
6.0702195 9.6894493 8.905323 13.9375
6.2849264 9.6190567 8.9041367 11.5
6.5445633 9.6929474 8.946104 7.1875
9.0893564 9.7428493 8.9284554 8.5
13.792937 9.7516775 8.9935226 11.333333
17.466362 9.6746387 8.8635235 13
-5.7069616 9.9297924 8.9531727 11.375
-5.5130343 9.944068 8.9499855 13.453125
-2.4706228 9.8515873 8.9347792 13
-2.3926449 9.9006405 8.9394989 11
-2.0368223 9.91047 8.9753857 0
-1.3667624 9.9929552 8.9702206 1
-0.86616993 9.823493 8.9195461 11
-0.74411893 9.9028177 8.9355259 7.46875
-0.53811401 9.9996729 8.8924904 0
-0.059035674 9.8594828 8.9035816 9.75
0.042855427 9.8385563 8.8814869 12.851562
0.21300678 9.8923702 8.8972073 12
4.3473215 9.8488503 8.9902973 12.161133
5.3733654 9.9021215 8.9971371 15
5.4173703 9.949501 8.9062424 14.5
6.1162143 9.8489151 8.9035282 14.781245
6.5335875 9.9059105 8.8891516 11.330468
6.612555 9.9780216 8.8600693 14
6.9120908 9.9221077 8.9312315 11.259838
7.4535913 9.9491634 8.8610611 7.5947266
7.819725 9.9344053 8.98526 9.0666237
9.7077541 9.9331598 8.9927702 5.25
15.441295 9.8150425 8.9182568 14
15.839564 9.9041224 8.8878431 14
-5.9162188 10.09687 8.9373159 3
-5.6774836 10.069748 8.9693031 13.692014
-5.5008588 10.080907 8.846365 12.75
-5.3921242 10.019838 8.9673052 15
-3.2800643 10.07419 8.9690256 9
-1.4398994 10.116637 8.9030504 5.7987289
-1.3259877 10.14769 8.8887863 2.25
-1.1345534 10.060804 8.8950348 9.5
-0.89108062 10.062658 8.9256716 1.375
-0.71543956 10.118476 8.9890909 5.5
-0.51406574 10.167627 8.8524246 8.5
0.10359401 10.044147 8.8162003 13
3.7860589 10.134962 8.9621964 3
3.9336653 10.135677 8.8764963 1
4.1202812 10.175991 8.8696766 4.5
4.5020952 10.11998 8.9884109 14.597824
5.3908935 10.051186 8.9934607 14.299441
5.5246997 10.018455 8.9411745 14
6.0833006 10.141416 8.9612541 15
6.5597978 10.005687 8.8435764 14
7.0189495 10.171869 8.9491978 14
7.8372355 10.179924 8.8296261 10.5
9.4185591 10.148065 8.9294863 10.833333
12.12991 10.077663 8.9964666 12
13.078741 10.179009 8.824832 11
16.12681 10.1476 8.9476309 14
18.481335 10.023675 8.866641 9
-5.921237 10.274245 8.9899731 2
-5.7326584 10.332361 8.8984327 3.765625
-1.8458314 10.346607 8.8132925 11
-1.7332833 10.323968 8.8100033 6
-1.4316311 10.27933 8.9036808 4
-1.3471293 10.283451 8.8677435 6
-1.0746001 10.248385 8.9274502 3.1973794
-0.89698321 10.328426 8.8863153 5.75
-0.66904074 10.283091 8.9157343 9.0137491
-0.53740555 10.25639 8.8728809 8.25
3.491363 10.361576 8.9108725 0.546875
3.7136521 10.299503 8.9022732 0.09375
3.8689592 10.316261 8.9054737 12.188658
4.1087618 10.341408 8.8647652 9.5799141
4.3069844 10.382181 8.9707594 12
4.463603 10.290834 8.89781 1.5
5.2989769 10.310112 8.8811455 13
5.6263204 10.391433 8.9761744 14
6.1334052 10.265873 8.895916 13.5
6.7099895 10.288006 8.9525919 12.375
6.9623876 10.372288 8.8968964 15
7.0139966 10.33088 8.9261551 13
7.4913206 10.330667 8.9625492 12.75
9.770155 10.245847 8.9739246 11.063171
10.362667 10.363441 8.9587517 7
13.863268 10.302643 8.8924551 12
14.359425 10.280865 8.9572468 14
-6.2851934 10.478331 8.8689194 13
-6.1353612 10.48807 8.8864374 11.167969
-5.9319744 10.514704 8.8987503 6
-5.7055893 10.534369 8.8770008 3.375
-5.475831 10.461485 8.9334688 10
-3.0430732 10.553261 8.952486 3.9368489
-1.9886059 10.500693 8.8132763 12
-1.4395729 10.439923 8.870553 12
-1.3644214 10.443721 8.9190102 10.560308
-1.1005466 10.484658 8.8772488 10.75
-0.93723452 10.499308 8.9252758 9.8070564
-0.69887704 10.476222 8.903595 7.5
-0.46516356 10.499866 8.8317213 15
1.8990773 10.50033 8.9569921 13
2.1659832 10.535439 8.9838924 15
2.2378592 10.457222 8.9895287 14
2.508826 10.597876 8.9924164 2
2.7465882 10.547042 8.9377747 5.7667847
3.541532 10.436475 8.9278316 5.958333
3.681277 10.465625 8.891078 10.9375
3.8471642 10.552032 8.8526707 5.0038452
4.0823603 10.460004 8.8297939 1.8125
4.2783222 10.477869 8.9311256 12.289104
4.517899 10.509708 8.9865103 14
4.6363215 10.496346 8.9740973 13.007906
4.9872689 10.481951 8.9221153 8.5414619
5.4752846 10.468194 8.9432993 13.23028
6.1034565 10.499579 8.8762646 13.046778
6.8660173 10.48049 8.8721094 13
7.4149032 10.432557 8.9922295 12.75
9.7483158 10.569643 8.9961205 13.291666
17.809532 10.426928 8.822197 9
-19.922089 10.611189 8.949297 2.2875977
-19.410858 10.749413 8.9521103 9.5625477
-6.0712404 10.661843 8.8907194 2.307029
-5.9012933 10.741488 8.8632126 8.21875
-5.6710672 10.70466 8.8574142 9.3852539
-5.5739551 10.672644 8.9346561 9.9375
-5.2649803 10.689394 8.9769897 12.625
-2.9870927 10.704967 8.8814907 1
-2.7310054 10.737293 8.8825607 3.625
-1.2262337 10.672983 8.884058 11.5
-1.050751 10.676866 8.9013195 12.182291
-0.95112979 10.710537 8.8327694 12
-0.77821088 10.620432 8.8259668 13.5
1.9393239 10.665213 8.9250298 14
2.0377526 10.72458 8.9869862 13.5
2.2905712 10.703625 8.9612045 3.625
2.5381308 10.704388 8.9219131 8.6355791
2.7182937 10.689814 8.9572792 7.4966688
2.8671227 10.693686 8.8715906 7.5
3.1015611 10.747791 8.8646049 1.578125
3.2349691 10.630031 8.8502522 1
3.54882 10.679481 8.9253035 11.375
3.7315865 10.683093 8.9469042 8.0396166
3.8678267 10.686737 8.859786 6.90625
4.1086884 10.652275 8.8830872 4.875
4.329998 10.728127 8.8359165 11
4.5085506 10.708525 8.9088106 13.5
4.650147 10.695787 8.8633347 13
5.3162518 10.65637 8.9899912 15
6.7287865 10.675723 8.8685036 13.5
6.9518967 10.6747 8.9416561 13.716984
9.004096 10.698606 8.945858 11.407553
12.492047 10.717422 8.93647 13
13.271572 10.609215 8.9523258 11.5
14.108467 10.677326 8.9868298 9.375
16.830158 10.707813 8.8086624 12
-19.857708 10.91659 8.8317909 12
-19.620634 10.854592 8.870369 12
-18.983547 10.925265 8.9496336 12
-6.2620697 10.811392 8.8856487 1.5
-5.8926916 10.949007 8.9166985 9.4402084
-5.6710434 10.873651 8.8882685 11.984375
-5.4969258 10.805003 8.964695 14
-3.4151869 10.976933 8.9881668 4
-2.946342 10.923587 8.8762646 1
-2.6797523 10.937827 8.9037085 1.3333334
-1.2573104 10.841448 8.8712425 14
-1.0452271 10.865782 8.9763784 12
2.3395519 10.87383 8.9291458 4.0625
2.531301 10.867697 8.9272718 12.837585
2.6710339 10.896824 8.825222 3.5820312
2.9304004 10.941641 8.9114552 4.125
3.1133633 10.915197 8.8753281 7.012207
3.2547672 10.844049 8.8872299 4.0625
3.5636759 10.865772 8.8897495 14
3.7486656 10.945259 8.8924074 14
3.9778261 10.989452 8.8172503 14
4.1876721 10.954711 8.8068142 13
4.526958 10.806269 8.8544064 15
5.255703 10.844591 8.9979773 14
7.906064 10.813302 8.8114128 13
8.864892 10.943265 8.9890623 13.578152
9.5853281 10.883657 8.9573889 14
12.729273 10.9681 8.8723297 11
14.736451 10.967962 8.9483776 13
-19.577965 11.092974 8.9637623 10
-19.335506 11.056581 8.9109364 13.375088
-19.16971 11.022823 8.9413633 10
-6.0360565 11.133674 8.8679323 13.801137
-5.9106913 11.055276 8.906414 6.75
-5.65659 11.05872 8.8833666 13.25
-3.4190595 11.134725 8.8550377 10.6875
-3.3046701 11.099277 8.8358459 3.25
-3.0957913 11.128662 8.9681625 4
-2.8140078 11.067089 8.8627167 2
-2.6968446 11.059549 8.9490604 7.6919127
-2.4907522 11.162792 8.9372654 2.75
-2.3996909 11.156522 8.9858456 1
2.3763742 11.185441 8.8207264 15
2.5202119 11.105585 8.911027 13
2.7305677 11.098775 8.8786097 8.2597656
2.8714175 11.116005 8.9084597 5.1256514
3.1047931 11.12224 8.904335 8.8609533
3.2276881 11.129583 8.9020233 6.75
3.5217087 11.101797 8.9217072 3
3.8057339 11.165433 8.9351578 4
4.0754533 11.141727 8.9449558 8
4.2277956 11.145024 8.834116 15
5.4331923 11.156514 8.883153 5.395833
7.0509262 11.105623 8.9033947 10.351562
13.443485 11.136717 8.9401617 13.5
16.626163 11.121885 8.9918861 13
-19.688936 11.309669 8.9930201 12.874813
-19.427618 11.33792 8.8125372 2
-19.258411 11.28711 8.8665428 12.25
-19.081015 11.285717 8.9133053 7.5
-18.875622 11.351071 8.9657364 8
-6.1293707 11.27519 8.9426136 14.5
-5.9413557 11.297636 8.8530827 12.5
-3.2537932 11.269827 8.8617229 5
-3.087739 11.272217 8.9553432 3.5
-2.8872457 11.304029 8.9721079 4.25
-2.6595347 11.265732 8.8887215 3.375
-2.5087774 11.347939 8.9115639 4.0625
-2.3311682 11.344233 8.8827372 2.875
2.3397765 11.225235 8.995492 15
2.51509 11.259136 8.9570293 15
2.7753897 11.323291 8.937007 6.7192869
2.8952916 11.293043 8.8779593 9.135417
3.1060038 11.276183 8.8511953 9.109375
3.3026333 11.376205 8.8597536 7.3850851
3.5158744 11.309236 8.9353161 4.625
3.7076845 11.271734 8.9074707 5.5052085
3.8606358 11.329789 8.8636341 5.125
4.1256399 11.296886 8.9096012 11.788498
4.2000971 11.357891 8.8491716 14
6.1056204 11.323881 8.814642 6
8.2868814 11.296906 8.8423119 7
8.8719997 11.230545 8.9751434 14.5
16.613867 11.336215 8.9749413 13
17.943016 11.265652 8.8574467 13
-19.080809 11.435751 8.9169064 12.722475
-16.690636 11.448433 8.8416662 14.555096
-16.502319 11.526657 8.8538189 11.5
-16.311186 11.536806 8.9643288 8.1650391
-3.0869794 11.462547 8.9304352 9.5
-2.8805463 11.447185 8.9440851 3.0833333
-2.6574802 11.481189 8.887248 4.0390625
-2.4764581 11.50316 8.9405041 3.2222221
-2.3015027 11.479074 8.9654837 3.4245849
-2.0785162 11.449514 8.8781605 15
2.7758734 11.58807 8.9479065 7
2.9533935 11.503151 8.9249601 13.339085
3.0401597 11.547873 8.9064617 8.5
3.2588742 11.474295 8.8466635 10.073432
3.5159035 11.463676 8.9415951 6.333333
3.7071664 11.487041 8.9060793 13.071928
3.8362045 11.469961 8.8727169 10.875
4.0746675 11.577707 8.8233309 9
5.1139679 11.460497 8.8455315 7.625
5.3808908 11.470692 8.8692551 7.7060547
5.6725922 11.460583 8.8656788 9.2222223
6.686872 11.463032 8.886241 6.6666665
8.650672 11.569627 8.8308735 8
9.9778585 11.437224 8.8619165 14.5
10.086151 11.470156 8.893178 14.75
11.940606 11.412277 8.9445534 14
13.859506 11.452337 8.9479713 14
14.90818 11.453821 8.9767685 13.5
-19.236958 11.716108 8.9435673 14.5
-16.714607 11.72225 8.8772097 14
-16.423246 11.660072 8.8394051 9
-14.817928 11.711381 8.9448662 15
-3.3704319 11.695352 8.8833742 13.5
-2.809016 11.60556 8.8753672 15
-2.7979898 11.600864 8.8538628 15
-2.4725885 11.682848 8.9058542 10.866667
-2.3597119 11.689238 8.9609823 8.5
1.6322031 11.622654 8.9870911 9
2.6375208 11.764153 8.8783693 8.6086893
2.9237094 11.684153 8.9181261 12.573242
3.1076465 11.705339 8.9228239 11.0625
3.3133528 11.752317 8.9609108 12.761263
3.4038453 11.643682 8.8002262 14
3.6968222 11.733597 8.9554377 7.96875
4.0681381 11.754271 8.8495283 13
4.2021694 11.707999 8.9646883 14.079512
5.1176786 11.703793 8.9114475 11.5
7.7403898 11.720424 8.912075 9
-15.871307 11.98329 8.8262911 13
-14.656045 11.907322 8.8908081 11.5
2.5174558 11.902176 8.9017286 8.5
2.7091541 11.972643 8.947341 9.875
2.9267538 11.89263 8.9517508 12.119608
3.1416056 11.881989 8.9052515 13
3.2997849 11.923483 8.8540401 10.5
3.4481473 11.965253 8.8758106 7
3.7279019 11.827649 8.9739323 15
3.9233551 11.941392 8.9135246 7
4.4366751 11.882599 8.8825645 13.25
5.3588872 11.854477 8.9620476 14
6.6787038 11.896423 8.8416843 8.7508678
9.108984 11.846045 8.9963684 15
17.41506 11.969128 8.9101372 15
-19.273329 12.035252 8.9223251 14
-19.070581 12.011972 8.9873905 14
-16.233345 12.141149 8.935379 14.999428
-16.175524 12.102715 8.8585253 10
-15.861118 12.103868 8.8960791 13.493606
-14.905613 12.142463 8.971138 14
-14.697732 12.064516 8.9536686 7.96875
-14.565948 12.048653 8.9042377 11
1.7956836 12.17213 8.8691273 7
1.9436623 12.112904 8.8416691 6.5
2.5656128 12.083836 8.9247017 12.125
2.7074451 12.098921 8.9228458 12.41927
2.8840055 12.116898 8.8919535 12.75
3.108557 12.124704 8.8213749 7.5
3.4566708 12.05644 8.9400234 9.424016
3.9629493 12.059165 8.8839111 11
5.2215524 12.194043 8.9159737 9
7.0196714 12.127602 8.9394894 9
8.1516495 12.173742 8.9463558 10
9.9376459 12.071582 8.8924131 10
17.184401 12.022161 8.8465538 14
17.588396 12.029156 8.8119545 14
-16.053003 12.26029 8.8325052 15
-15.982556 12.378822 8.9699202 15
-15.620937 12.242911 8.8630733 13.25
-14.642136 12.248163 8.9041967 13
1.7363821 12.245605 8.8393679 7.0234375
1.9492755 12.249345 8.8525095 11.966146
2.002527 12.320312 8.9759483 8
2.7858522 12.386178 8.8844032 11
2.8976469 12.332169 8.8727999 9
3.0917664 12.352655 8.9027672 10.5
3.3670683 12.292801 8.9448509 9.328125
3.4864995 12.328546 8.9579182 10.25
5.1261654 12.251783 8.965971 9.375
5.3310466 12.216794 8.8229809 10.107639
6.3681369 12.371952 8.803195 14
6.664917 12.219918 8.8281231 10.333424
-15.927296 12.500773 8.8708105 10
1.6691475 12.520943 8.8377161 8.5
1.8838148 12.502707 8.8415222 12.197916
2.1310439 12.471796 8.8014765 9
2.7656028 12.506754 8.9068108 11.375
2.9262857 12.475144 8.8837614 13.290569
3.00665 12.547957 8.9976931 15
3.4608135 12.444542 8.9149971 13.048858
3.7611158 12.536253 8.9080067 15
4.2354183 12.517331 8.9735374 13.983904
5.3805056 12.538472 8.9633846 12.458334
7.1682043 12.534537 8.8488064 12
7.4851332 12.570524 8.9716311 14.361111
-19.688427 12.75898 8.9315643 4.5416665
-19.521797 12.715254 8.9589376 4.5067997
-18.791943 12.762203 8.9451694 5.5
-17.332281 12.630141 8.9927225 6.5668435
-16.924337 12.724998 8.8971024 6.8345509
-16.726469 12.745508 8.8002872 4
-16.427723 12.736215 8.9344769 5
-16.316404 12.731842 8.9221144 4
-16.0396 12.710249 8.8858776 4.5
-15.974155 12.653681 8.9361811 5.4375
-15.673435 12.635897 8.9726543 11
-11.750024 12.6736 8.9335938 14.5
-11.539221 12.634922 8.9835434 9
-9.2284603 12.710377 8.8435335 14
-9.1890802 12.654825 8.8591747 8.4521484
1.5887365 12.663183 8.8151684 13.5
1.7212223 12.645889 8.8327484 12.0625
1.8184993 12.63471 8.9122467 9
2.1783695 12.658355 8.8711958 12.5
-18.832407 12.918251 8.8559341 13
-17.432087 12.916553 8.9575729 14.898346
-16.905401 12.915446 8.9019012 10.486491
-16.641346 12.902329 8.8752508 5
-16.426369 12.831635 8.8957233 7
-16.056683 12.856237 8.9014053 13.5
-15.950476 12.873043 8.8786478 11.734375
-15.762446 12.989532 8.9941063 9
-11.884108 12.869656 8.8833923 5
-11.729357 12.808761 8.9576702 9
1.794036 12.816156 8.8030243 10
3.720005 12.828897 8.8570976 14
6.8733368 12.940525 8.8971786 12
-19.955744 13.099092 8.8568001 15
-19.761108 13.162619 8.9802017 15
-19.52236 13.0415 8.9171124 14.997658
-19.365568 13.037892 8.8144512 15
-18.102938 13.098464 8.9024496 7
-17.907654 13.131145 8.9070225 7.640625
-16.520262 13.081293 8.9134827 12.862808
-16.330784 13.06148 8.8652954 9.5
-16.025219 13.047233 8.8345299 13
-15.871653 13.089558 8.908226 8.125
-15.738474 13.188376 8.9277983 9
-8.8088188 13.147322 8.9616375 15
3.3617897 13.035444 8.9752865 13
4.2972388 13.033356 8.9049206 11.701389
6.7772245 13.002761 8.8484383 12
-19.837412 13.267264 8.9531984 14.99994
-18.881832 13.26475 8.9304743 14.901041
-18.682507 13.374487 8.9254837 14.328686
-17.875053 13.296825 8.8753214 6.5598965
-16.514877 13.243279 8.8786507 12.877872
-16.263657 13.30192 8.8813076 12.606
-16.018209 13.30588 8.8492718 6.5
-15.914041 13.238144 8.9087191 13.5
-15.674476 13.310208 8.948082 14
4.270081 13.253592 8.807579 13
-19.773403 13.414388 8.9009628 15
-18.268345 13.431599 8.8897972 5.5073328
-17.35157 13.423059 8.9385796 9
-16.873598 13.443981 8.882515 12.281842
-15.84054 13.51209 8.8659077 12.5
-15.757651 13.581858 8.9451752 12
-11.504563 13.451642 8.8916693 14.332466
2.2939553 13.455433 8.8679581 14.07373
2.6067557 13.586264 8.9357147 14
6.2498932 13.412447 8.987608 14.75
6.632412 13.44415 8.9459829 14.5
7.620162 13.526861 8.9996452 14
-19.700237 13.70369 8.9608326 14.292376
-19.488237 13.718122 8.9762344 10.344208
-19.05587 13.670784 8.9073257 8.75
-18.189808 13.742968 8.9537697 10.499995
-16.11936 13.751633 8.9932117 11.599548
-15.866581 13.654722 8.9009953 13.9375
-11.427083 13.664341 8.9425287 13.833333
2.3643084 13.614272 8.8172302 14
8.150445 13.69635 8.8049412 14
-17.653576 13.899677 8.9765644 9.136754
-17.381287 13.91234 8.9052124 12.254761
-17.073748 13.813877 8.9064159 11.937504
-16.536213 13.925735 8.912817 9.7109385
-16.247667 13.884256 8.8788633 7
-19.783482 14.067009 8.9888248 10.953115
-18.570215 14.065316 8.8975 12.4375
-18.163639 14.115394 8.8891964 9.8125
-17.728912 14.065502 8.9072495 13.234375
-17.288275 14.162477 8.9253483 13.99971
-17.106421 14.102269 8.9404783 14.785007
6.2646899 14.046368 8.8997908 15
6.6093712 14.033947 8.9328718 15
-19.484486 14.254269 8.9427662 13.146645
-19.111042 14.219943 8.880619 10.619141
-19.921795 14.566625 8.9345732 12.839142
-18.087009 14.41294 8.9029779 13.5
-16.465094 14.425051 8.9000797 15
-19.335684 14.661335 8.9771976 7.5976562
-19.14006 14.877205 8.855423 14
-17.467419 14.984695 8.9448223 15
-19.7218 15.123619 8.9536324 11.191033
-17.651674 15.127798 8.9372864 15
-16.49316 15.194073 8.8726864 10
-16.252823 15.161982 8.9874802 10
-19.867989 15.283047 8.9062595 11.210612
-19.51989 15.21375 8.8166094 8
-17.522446 15.230738 8.9581413 14
-16.327852 15.266476 8.9631329 13
-19.946224 15.551085 8.9064178 11
-19.705328 15.544262 8.868124 8
-16.453611 15.450951 8.865056 12.25
-16.279549 15.549673 8.9260197 12.5
-19.887585 15.656669 8.8982544 11
-16.889353 15.772492 8.9023151 13.78125
-16.451977 15.655251 8.8365803 9.5
-16.313833 15.656865 8.9210091 11.75
-19.931704 15.878687 8.9753847 14
-19.753712 15.807739 8.9876461 14.473652
-18.759287 15.991493 8.9523659 12
-16.458584 15.813095 8.8141155 11.5
-17.128338 16.171232 8.9779654 10
-16.415939 16.023561 8.9816399 10
-18.802721 16.337036 8.9668226 15
-18.58226 16.254164 8.9552536 15
-17.05884 16.290512 8.9940815 10
-12.909416 -19.865639 9.1285143 8.25
-12.328368 -19.832642 9.1103573 10.125
7.1315703 -19.873428 9.0604544 12
6.9196348 -19.688654 9.1499767 0
13.002483 -19.730835 9.0989094 0
-12.756724 -19.498983 9.0100517 14
7.0709314 -19.561975 9.0331821 4
-16.512543 -19.393669 9.0377293 9
-14.6509 -19.26001 9.0177402 0
-11.898747 -19.291576 9.066576 13.25
-10.368328 -19.211779 9.0041924 2
-9.3780537 -19.366074 9.0154648 6
-9.10499 -19.35224 9.1031284 9.598959
-8.8174639 -19.290024 9.1201735 2
-8.7682934 -19.24465 9.108036 3.5
6.7802362 -19.323666 9.0625925 12
6.9841232 -19.234653 9.0202751 12
9.1421328 -19.268616 9.0549202 9
10.946138 -19.326385 9.0058689 12.96875
11.511385 -19.348124 9.1318779 9
11.624163 -19.294231 9.1862154 9
13.03739 -19.290285 9.0508461 4
-14.987274 -19.107718 9.1774397 2
-10.458912 -19.120087 9.0932751 2.5
-9.6109333 -19.167538 9.1045856 14
-9.4252539 -19.022655 9.1100445 14
-9.0457945 -19.03994 9.0446653 13.32118
6.755764 -19.179979 9.0339451 15
8.9300938 -19.058825 9.0538111 14.125
9.7263546 -19.049517 9.0139065 14
10.780392 -19.01877 9.0510855 12
10.812909 -19.186573 9.1848469 15
13.765829 -19.03561 9.0470238 3
18.668249 -19.099352 9.0716877 13
-14.705051 -18.959063 9.0256939 2
-13.307038 -18.995251 9.1016521 4
-13.015491 -18.963444 9.1646137 15
-10.767952 -18.892088 9.1025391 2
-10.509669 -18.987053 9.0829792 12
-10.386329 -18.82583 9.1176729 7
8.5188694 -18.83156 9.0331936 14
-15.480172 -18.64566 9.0654392 6
-10.845903 -18.697868 9.0035725 10
-10.550013 -18.717966 9.0249949 14.0625
-10.37466 -18.743401 9.1969604 9
19.167271 -18.715752 9.1581831 6.25
19.500443 -18.623188 9.1797886 6.5
9.0889778 -18.533094 9.0203524 13.125
11.367328 -18.554031 9.1033535 11
8.2630062 -18.344902 9.1931076 10
8.9824352 -18.239586 9.0028629 8.375
11.007071 -18.270939 9.0676823 15
11.472057 -18.222822 9.0087414 11
19.962141 -18.393665 9.125268 8
-16.067904 -18.113091 9.1314468 11
13.77914 -18.163177 9.0112867 9
-17.23748 -17.936232 9.0060778 12
-17.153652 -17.804941 9.0685425 10.625
-16.11478 -17.770508 9.0041389 8.416667
-12.909366 -17.671673 9.1956091 11
9.8776903 -17.694544 9.086689 6
12.596112 -17.700703 9.1429844 2
13.496107 -17.798336 9.0605536 13.25
13.699224 -17.697308 9.1221104 10
-17.395716 -17.526329 9.0831289 13.333333
-16.938704 -17.430553 9.022274 12.8125
-16.493563 -17.506575 9.0113773 13
-16.066235 -17.419334 9.0566397 13.09375
8.5687504 -17.459795 9.0900555 3
9.1170816 -17.426304 9.0625973 4
13.507721 -17.584721 9.1879292 9
13.757236 -17.491854 9.0588913 14
-15.773674 -17.376999 9.0874958 13.114584
-15.134014 -17.346899 9.0478811 3
-12.913027 -17.355419 9.0472164 8.5
-12.039073 -17.36874 9.1658993 13.5
-11.905744 -17.368847 9.1637611 9.5
8.5155478 -17.366278 9.1524324 7
9.1633511 -17.281569 9.1224079 6
9.273695 -17.316359 9.1050501 13.5625
12.373475 -17.309109 9.1428471 0
-16.099869 -17.043573 9.0064764 12.5
-15.074221 -17.005239 9.192482 4
-11.855909 -17.013912 9.1069717 12.75
8.4421721 -17.184982 9.065485 12
8.6957569 -17.103363 9.1791821 4.5
8.9227676 -17.08744 9.0658741 14.935982
9.1265411 -17.144341 9.1053905 6.5
13.406507 -17.074257 9.1256771 12.25
-11.458385 -16.87735 9.0317574 9.25
8.6701822 -16.986897 9.0249805 13.776041
8.8571873 -16.808411 9.1049662 1
9.0708933 -16.875183 9.0925579 12
9.26019 -16.970112 9.0509062 8.6067715
12.269638 -16.941147 9.026619 4.25
13.008741 -16.946157 9.1646919 12
-16.98353 -16.752872 9.0379658 3.5
-16.176807 -16.731373 9.1176348 13.787037
-15.453432 -16.669044 9.0544815 14.25
8.4930773 -16.737347 9.1119471 5
8.6853294 -16.632433 9.1203232 11
8.9939175 -16.726749 9.0799503 13.703125
9.4872351 -16.684608 9.1076107 14.763889
-17.541822 -16.502581 9.1651249 14
-16.624783 -16.452694 9.0537691 12.75
-15.977683 -16.592812 9.0412397 4
-9.5341387 -16.420612 9.1279697 12
-8.8059397 -16.581087 9.0249443 8
8.2646255 -16.49297 9.05478 8.5
8.5602217 -16.529707 9.0161133 1
8.6940556 -16.551498 9.0419559 9
10.449734 -16.498947 9.005209 9.375
11.867271 -16.469055 9.0983353 2.75
-16.877087 -16.269781 9.0256042 11
-16.571198 -16.237305 9.0242872 11.125
-16.157192 -16.237267 9.0392532 12.25
-11.507913 -16.216393 9.0021696 9
8.0263863 -16.23934 9.05513 2
8.4841652 -16.332886 9.0941362 12.069941
9.7111177 -16.24736 9.0396137 13.5
10.545486 -16.244625 9.1210098 4.5
11.465301 -16.203358 9.0917454 7.265625
-17.617899 -16.171671 9.0015221 11
-8.9553967 -16.180443 9.0126839 2
-8.792573 -16.112 9.0159273 13
8.1240568 -16.183107 9.1566334 3
10.872789 -16.197237 9.0026684 6
-17.01123 -15.867089 9.126914 3.5
7.9696641 -15.981161 9.0872021 5
8.5998259 -15.879163 9.0265293 13.239584
9.8246002 -15.852321 9.0275974 11.25
-15.274145 -15.793133 9.1679497 11
-10.411119 -15.798372 9.0473785 15
11.314351 -15.718864 9.0459814 14.27257
-16.97921 -15.404585 9.1494102 2
-9.9682741 -15.419311 9.0656519 13
-8.2972183 -15.56061 9.0473728 14.75
9.8382664 -15.51536 9.1619186 4.25
10.364061 -15.452937 9.0170088 12.46875
10.523395 -15.519824 9.0053883 9
11.001492 -15.528117 9.0047531 11.501302
11.535861 -15.446929 9.0518761 13.546682
12.113682 -15.411798 9.0014343 6.28125
10.47356 -15.234348 9.0326977 0
-16.963753 -15.070804 9.1441774 9
-14.963663 -15.090236 9.0802794 5
10.460203 -15.132309 9.0663261 3
-9.7297115 -14.951662 9.0352612 13.5
10.254181 -14.997432 9.0362196 8.375
10.484274 -14.869287 9.0281754 12
10.642349 -14.913496 9.0970573 10.127581
10.901221 -14.900558 9.1446247 10
11.726303 -14.852939 9.017189 1
12.467282 -14.929217 9.0162649 6.9375
10.54274 -14.702368 9.0586948 14.166666
10.764548 -14.771219 9.1508522 2
11.726247 -14.657358 9.0611458 1
19.330172 -14.782173 9.1194592 0
-10.910353 -14.404449 9.1545792 3
10.192245 -14.569044 9.0294876 12.550781
11.014705 -14.514132 9.1257219 13.208984
12.133121 -14.504551 9.020751 14.037808
-8.0801201 -14.282195 9.1710711 1.75
-5.7964821 -14.246112 9.1762495 1
-5.049439 -14.202959 9.1758308 0
10.487359 -14.379844 9.0846119 5
10.999807 -14.314544 9.0412769 13.21875
11.126388 -14.32437 9.0365562 11
11.432869 -14.230755 9.0398178 13.485025
19.617645 -14.387695 9.1464024 2
-10.929725 -14.150312 9.1138306 7.125
-10.557463 -14.11201 9.1770821 5
-8.1284027 -14.080078 9.1772518 7
-5.0509448 -14.199178 9.1520214 0
11.776848 -14.127299 9.0098066 10.652778
12.090026 -14.012813 9.007329 13
19.031761 -14.129038 9.0054312 7.34375
19.299202 -14.099776 9.0861702 5.8125
-10.988736 -13.879257 9.1410456 14.076389
-10.669079 -13.903738 9.0843563 6
-10.571538 -13.975292 9.1753893 7
-8.2347441 -13.863411 9.1740704 12.25
-5.6542358 -13.896731 9.0729256 13.145833
-5.5143418 -13.974033 9.0095625 7
-5.3153877 -13.867307 9.1674042 10.770834
-5.004663 -13.919086 9.1951599 8
11.033208 -13.886396 9.1047821 11
11.47506 -13.988772 9.0435572 5
11.77714 -13.94898 9.0479736 12.5
11.923712 -13.945324 9.0573502 7
17.55368 -13.845037 9.1138306 0.66666669
19.012497 -13.805325 9.0380707 5.9375
19.238554 -13.894069 9.0419216 2.25
-11.019935 -13.709276 9.0630341 4
-10.959227 -13.763042 9.082592 8
-8.3029499 -13.778913 9.145216 12
-5.406867 -13.792833 9.180542 2
18.490875 -13.692314 9.0172386 8.8425922
19.81428 -13.722758 9.1032095 5.3333335
-11.077934 -13.517699 9.1061115 8.6940098
-5.5288386 -13.545156 9.1727114 10
-5.3607111 -13.499828 9.1802816 13.5
11.521405 -13.583515 9.0195169 7
19.771338 -13.462193 9.0975275 6.375
-11.40462 -13.375208 9.1868935 7.25
-11.110161 -13.359556 9.0452347 12
-10.767216 -13.351163 9.1838703 8.5
17.109173 -13.325836 9.1455164 2
17.845871 -13.367246 9.0408106 11.236111
18.94059 -13.365213 9.0570221 10.25
18.488049 -13.058158 9.0015278 11.703125
-11.309598 -12.986789 9.0558262 15
-11.086382 -12.962258 9.1862898 15
-10.944002 -12.922682 9.126749 12.458334
17.026672 -12.868607 9.0332222 3
17.377285 -12.884933 9.0450554 6
17.172045 -12.669441 9.006422 13.75
17.258036 -12.778804 9.1821661 3
19.385815 -12.596306 9.0428705 2
17.473438 -12.262615 9.1296864 9
17.818035 -12.223524 9.0412598 14.654513
18.239708 -12.180805 9.0959463 14.604767
18.19252 -11.791071 9.0618229 8.75
18.676926 -11.780102 9.0757065 13.584636
19.081459 -11.736675 9.0932722 10.184896
19.388855 -11.693136 9.0926723 9
18.543695 -11.440264 9.056675 6.0625
17.716694 -11.295723 9.0202866 5
17.724764 -11.006826 9.0979385 8.5
18.191559 -11.102806 9.0181541 10.444445
18.402472 -11.139366 9.0059595 5
19.042881 -11.065723 9.0325546 14.209961
19.422661 -11.081817 9.0128822 14.82581
17.625736 -10.943906 9.0755463 10
17.838196 -10.854002 9.0742693 10
18.617931 -10.95053 9.0855207 13.951389
19.011131 -10.727477 9.058054 14.296875
18.182579 -10.526258 9.0269041 14.616873
18.602991 -10.586659 9.0308485 12.333333
19.361797 -10.504543 9.0186644 14.722222
18.161179 -10.345388 9.0512371 11.625
17.774639 -10.11407 9.0220366 10.5
17.627848 -9.7773685 9.1953611 1
18.207203 -9.7950726 9.0428019 13.375
14.60062 -9.5062733 9.0324554 2
15.156229 -9.4165478 9.1491013 2
12.97573 -8.8458633 9.1341162 0
13.485149 -8.840868 9.0840073 0
14.198885 -8.9632587 9.1132298 3
14.256706 -8.9671068 9.0130358 3
14.716042 -8.8908014 9.0829945 2
15.716278 -8.8996706 9.1191826 0
12.618622 -8.6321211 9.0530024 0
13.061122 -8.6537333 9.1009598 0
14.046065 -8.6711588 9.0317888 0
19.757002 -8.6785889 9.0513458 0.5
12.392471 -8.4318581 9.0331383 0
13.262541 -8.4700527 9.0643997 0
13.826082 -8.5188446 9.033886 2
18.192879 -8.4295692 9.0482769 1
14.917981 -8.2251472 9.0945148 2.6666667
15.259052 -8.3532629 9.1719465 1
19.95286 -8.2794981 9.1823072 0
12.667273 -8.1756897 9.0489578 1
12.813617 -8.0026112 9.1097755 0
14.006532 -8.043788 9.1768017 1
16.727526 -8.1583138 9.0242825 0.5
16.921486 -8.1943588 9.0395069 0.5
17.450596 -8.0353012 9.031147 0.5
10.82707 -7.8094864 9.1337032 0
11.273487 -7.954937 9.022089 0
12.772971 -7.9955487 9.1220007 0
13.344117 -7.8858528 9.067852 1.1319444
16.013973 -7.8761659 9.0524549 0
19.36525 -7.8635187 9.1264324 0
19.994553 -7.9453726 9.0937166 1
10.797649 -7.7988267 9.0056581 0
11.774716 -7.7038183 9.0009451 0
13.102249 -7.7926197 9.0818806 0.875
13.865646 -7.7714 9.0414295 0.75
14.166037 -7.7553339 9.114068 1.0833333
14.87045 -7.7676706 9.0630798 1.25
11.875664 -7.4691567 9.0134068 0.75
13.063765 -7.480772 9.0441685 2.5
13.884291 -7.4622288 9.1278248 0.5
14.17862 -7.4027076 9.072238 2.0833333
15.08946 -7.5566616 9.0622578 5
16.162161 -7.431416 9.03934 1.5
11.385844 -7.347086 9.0827312 1.6666666
13.379122 -7.3610725 9.0066004 1.25
14.931868 -7.2912974 9.0172243 1.5
15.267527 -7.3506999 9.0812902 0
19.579279 -7.3240747 9.0270548 2
19.929678 -7.265851 9.006875 1.125
9.6356611 -7.0018082 9.1815796 1
10.740585 -7.1880665 9.0170746 0
11.267709 -7.0232315 9.1830902 1
13.826651 -7.0414286 9.0357599 0.83333337
14.219323 -7.0607839 9.0760622 2.1180556
15.235071 -7.1071911 9.0663567 1.5
15.786701 -7.0316505 9.0106087 2.2905092
16.165762 -7.0371895 9.0378017 1.625
18.440012 -7.1657405 9.1016312 2
19.864151 -7.030848 9.077446 2.5
11.442291 -6.9862509 9.0078125 1.6875
12.113853 -6.9051189 9.0304804 2
14.614722 -6.9007702 9.0023241 2.7916667
19.247873 -6.9151678 9.1168098 4
10.692284 -6.7735271 9.1034832 2
14.161076 -6.6399803 9.041975 2.4166667
15.338118 -6.7194386 9.1872663 1
15.791312 -6.6549201 9.0156813 2.8055556
17.391695 -6.6444626 9.0019913 4
17.735041 -6.6407809 9.0475798 4
10.722862 -6.5546494 9.0001612 3
11.855813 -6.5611386 9.0135717 2.8055556
12.587312 -6.5116425 9.0715446 6.1666665
13.36866 -6.5163994 9.0394802 3.3888891
16.294254 -6.5538187 9.0570278 4.2916665
10.828884 -6.3001256 9.0299797 3
11.044765 -6.2820473 9.0071859 3
11.725304 -6.3659854 9.0628538 3
12.067966 -6.3125296 9.0971222 1.7291667
14.310945 -6.2671351 9.0162334 3.2382812
14.971792 -6.2649398 9.0316143 5.25
15.924563 -6.2999468 9.0328922 4
10.499371 -6.1533103 9.185956 4
11.051252 -6.090457 9.0565767 0
11.246166 -6.0147901 9.0385046 0
11.467632 -6.1402225 9.1069174 3.7986112
12.068547 -6.1685414 9.0788279 0
12.881487 -6.176096 9.045023 3
13.314354 -6.1625109 9.0084133 4.796875
13.696779 -6.0287557 9.0467272 4
13.876577 -6.1600666 9.0169315 0.74955994
14.530272 -6.1990213 9.0587559 5.2083335
16.330927 -6.0451899 9.0491219 3
19.528969 -6.1114588 9.0597801 8
11.096159 -5.8840151 9.0891914 2.625
11.220755 -5.9553633 9.048502 2
11.829257 -5.8285618 9.000597 4.4337387
12.262923 -5.8861341 9.075922 6.4513674
13.346672 -5.8057642 9.1717157 6
14.302414 -5.8228364 9.1172981 5.3115234
14.421218 -5.9142075 9.1279221 6
15.809446 -5.8293519 9.0142622 5
16.92511 -5.8345633 9.0313606 5
17.298794 -5.8213825 9.0284805 5
17.901573 -5.8700857 9.1474342 5
10.988396 -5.7032666 9.0568428 4.625
11.10181 -5.6522398 9.1066923 5
11.285325 -5.7446613 9.0040722 1
11.995775 -5.6888123 9.1752691 1
12.045673 -5.6947594 9.1411247 1
12.76211 -5.651752 9.0581913 7
12.914397 -5.7429638 9.0192394 5.6875
13.383049 -5.7796669 9.0211096 6.6666665
13.769621 -5.6460643 9.1580534 6
13.8222 -5.7528963 9.0097904 5.2146988
14.926086 -5.6573067 9.1061249 5
15.3349 -5.6520348 9.0993738 1
16.144173 -5.7813029 9.0751705 4.375
18.147282 -5.7795291 9.0213251 0.5
19.513092 -5.7802339 9.1234379 10.25
10.571598 -5.4929981 9.0101395 11
11.136831 -5.4813194 9.1875439 1
11.264753 -5.481432 9.1062527 3.25
11.540372 -5.5428548 9.1987877 3
11.708548 -5.4846153 9.1642914 5
12.048978 -5.4686294 9.1629534 2
14.135841 -5.4960928 9.0733318 8.2747402
14.463392 -5.4522495 9.0462866 9
16.297215 -5.4116383 9.1433401 2.875
11.189925 -5.3898478 9.012661 5
11.36871 -5.3219428 9.0047855 3.4635415
12.157599 -5.3419719 9.0707016 3
12.652195 -5.3155413 9.0092421 3
12.95246 -5.3012094 9.0328903 7.203125
13.273865 -5.3211813 9.075388 8.25
13.899337 -5.2810802 9.1312571 8.5
15.392139 -5.3897233 9.0462179 2
15.831206 -5.309803 9.0386953 8
17.033792 -5.2103586 9.1467113 6
19.385464 -5.3513765 9.0154591 11
19.625841 -5.3525019 9.0353355 11
10.479154 -5.0909023 9.1747952 4
11.170805 -5.017149 9.0119286 6
11.414309 -5.1033263 9.0640202 6
11.927616 -5.1909723 9.0216084 3
14.611736 -5.0068731 9.0752106 7.8333335
17.127611 -5.0998044 9.0981846 6
19.378195 -5.0660467 9.1220188 11.125
11.122471 -4.9669833 9.1020832 3.15625
11.943301 -4.9625955 9.063446 5
12.007719 -4.8721294 9.0625696 6
12.334865 -4.9980211 9.1217651 5
13.095495 -4.9176168 9.0974827 8.203125
13.201236 -4.8670793 9.1289949 11
14.266325 -4.9302654 9.1106968 10.640625
16.208475 -4.9740171 9.1269836 4.1875
19.075556 -4.8897896 9.1199036 5
19.698921 -4.9154606 9.0351562 11
11.334385 -4.7800002 9.0128183 6
15.404717 -4.6684093 9.0171223 4.5
16.081272 -4.6993899 9.0743637 6
16.586401 -4.6996999 9.0688057 4.6666665
17.711643 -4.6417341 9.0994129 5
19.850018 -4.6768265 9.0180435 2.6666667
8.4973564 -4.5438995 9.1724768 2.375
9.1410561 -4.5076437 9.0539093 2
10.687939 -4.5990038 9.0298424 2
11.3694 -4.5548263 9.108614 7
12.709515 -4.4753437 9.0874996 11.490234
13.276771 -4.5932231 9.0665388 10.5
13.785366 -4.5564251 9.0626116 12.125
13.975502 -4.4910517 9.1304216 15
14.221352 -4.4165864 9.0618515 10.25
14.679673 -4.5423207 9.0049248 3.625
18.183004 -4.5933809 9.0464144 0
19.386362 -4.5430703 9.1081638 14
3.5636802 -4.2791014 9.1810102 0.75
8.9290028 -4.2635221 9.0816822 2.5
10.528908 -4.336616 9.0688095 4
11.852545 -4.2521558 9.0626602 10.875
12.062479 -4.2223268 9.1239386 7
12.302227 -4.3356009 9.0948114 10.5625
13.139298 -4.2368245 9.0851822 12
14.256706 -4.2518435 9.0958366 13.375
15.071544 -4.2551832 9.0199213 5.875
15.345232 -4.2179823 9.0240211 6.291667
16.469435 -4.2128077 9.146183 0
17.950266 -4.2218075 9.053463 4
19.85322 -4.2152357 9.0342035 11.75
3.7781379 -4.0029788 9.1862326 0
4.0730147 -4.07096 9.193306 1
8.5485601 -4.1275797 9.1740932 6.1171875
8.859663 -4.0788054 9.125948 3
11.001001 -4.1231928 9.0192432 6.583333
12.957831 -4.1807041 9.1015844 12.202692
14.599321 -4.182251 9.0661707 11.5
15.798027 -4.1924906 9.0036049 4.625
16.962263 -4.1205473 9.0809355 4.875
19.039751 -4.1788378 9.0798273 13.5
19.417589 -4.1624632 9.1881084 13
3.5727811 -3.9288678 9.1366224 0.875
3.6450009 -3.9492292 9.1655846 3.25
3.8932014 -3.8712213 9.1696901 1
4.0943575 -3.9433241 9.1560831 2
8.8834066 -3.9061375 9.0723591 4.5
9.1461821 -3.8777585 9.1039276 4
13.419853 -3.8509033 9.0392008 10.222222
17.035275 -3.8816638 9.0517673 5.9375
17.799772 -3.8730717 9.0218725 5
18.058149 -3.8182423 9.0437737 6
18.916969 -3.9141054 9.1652975 15
19.413267 -3.9314585 9.0422354 15
19.789253 -3.8379154 9.0300341 7.375
2.3880329 -3.6399543 9.1627903 2
2.4783807 -3.7192647 9.1534996 0.77499998
3.0927825 -3.6431451 9.0109444 1.3333334
3.3718407 -3.6560235 9.0811167 1.25
3.4772997 -3.6700537 9.1228504 2.7141926
3.6721468 -3.6761262 9.1521101 4.604167
4.2200537 -3.6069965 9.1729212 8
7.9537716 -3.6224301 9.0313749 4
8.201952 -3.7336557 9.115591 8.9945745
8.70788 -3.7476711 9.1108036 6.5617542
8.8037434 -3.7661471 9.0793419 7
9.0221329 -3.684006 9.0696039 7.5798054
11.948332 -3.7227337 9.0047693 8
12.270982 -3.7397404 9.0116253 10.75
12.528236 -3.7196314 9.0256624 13.298611
12.932236 -3.7997916 9.0396185 9.2476854
14.607259 -3.799686 9.044569 5
15.288273 -3.7449548 9.0360565 6.53125
16.26659 -3.6828673 9.0328474 5.375
2.3593614 -3.4212117 9.1759529 2.9375
2.4533467 -3.4327536 9.1259871 3.9331212
3.0857117 -3.4846501 9.0443268 2
3.3102589 -3.4663484 9.1470757 4.578125
3.5509443 -3.5168533 9.0930605 3.875
3.7391939 -3.5090718 9.1741447 6.5910373
3.8918204 -3.4732099 9.1053753 2.5
12.599009 -3.4767609 9.0316715 14.125868
2.2934747 -3.2326922 9.1763897 5
2.5163193 -3.2896111 9.1538591 3.875
3.0277822 -3.3200357 9.0797882 3
3.3444986 -3.3519764 9.0800171 5.75
3.488519 -3.3087161 9.1217155 6.6418128
3.6059866 -3.368669 9.0113583 4
4.1108656 -3.3386006 9.1486425 9
7.3027186 -3.2858968 9.0304747 2.4027777
8.6176338 -3.39814 9.1726723 9
12.174334 -3.389828 9.0639896 10.625
13.275883 -3.3046536 9.0809374 12.34375
13.946018 -3.3517864 9.0420952 6
14.686647 -3.3455195 9.1015158 2.875
17.076904 -3.3933666 9.0207262 5.5
18.580111 -3.3180757 9.1590796 3
19.00914 -3.3801823 9.039669 8.5
19.278805 -3.3766952 9.0641422 9.5625
19.976273 -3.358752 9.0424252 7.5
2.3344038 -3.0597734 9.1658354 5.75
2.4204631 -3.0637317 9.1590023 7.5
2.9396579 -3.071702 9.0739021 4
3.1459241 -3.1100755 9.0657921 4
3.3278804 -3.063657 9.0321236 4.875
3.466316 -3.1751511 9.1225052 6.5
3.6849046 -3.1170535 9.1661596 5
4.2735782 -3.071418 9.0888329 0.5
8.3005819 -3.0539265 9.0238152 2
10.689638 -3.1402349 9.0956154 6
11.003282 -3.0770752 9.0895157 6
11.502499 -3.053107 9.0016861 9.7361107
12.280554 -3.0519285 9.0231113 12.770833
13.831339 -3.100657 9.1263561 9
14.618577 -3.0601718 9.1117277 6.5
14.988262 -3.0758858 9.0419273 8.604166
18.071386 -3.1751199 9.1452179 0
2.191937 -2.9278221 9.1698666 1
2.2815022 -2.9442472 9.0328236 6.6666665
2.4050355 -2.8702669 9.1290283 3
2.6997049 -2.9402802 9.0167828 9.8520832
3.1129289 -2.8922021 9.1329298 6
3.3525567 -2.9230547 9.1198864 5.5
3.519311 -2.9187789 9.1701164 11.085593
3.6962194 -2.919961 9.1351271 6
3.8021812 -2.919971 9.1418991 9.5277777
4.3115826 -2.8620749 9.1468372 1.5
4.4618454 -2.9128652 9.1185608 0
4.6733627 -2.8321235 9.1028347 0.33333334
7.0360336 -2.9996843 9.0590715 0
7.5442109 -2.895741 9.0710926 6
8.689395 -2.9881835 9.0874271 10.165791
8.963603 -2.8714662 9.0811815 9.0690098
10.139576 -2.8814998 9.0754356 4.333333
10.655708 -2.9321544 9.0200844 7.625
12.639842 -2.9373474 9.0142498 13.722221
16.673008 -2.9714828 9.0586538 6.911458
19.352922 -2.9566898 9.056447 5.3333335
2.1108487 -2.7451243 9.1723948 3
2.3199244 -2.6818995 9.1868124 6.614583
2.4991491 -2.6599846 9.1552 4.9583335
3.3195329 -2.743021 9.1488609 11
3.7349243 -2.6980696 9.1723633 4.5
3.9171636 -2.6992326 9.0808325 1.5
4.2603626 -2.7029991 9.1307392 4.25
4.9333081 -2.6051712 9.1514769 1
5.2820454 -2.7997274 9.1801605 0
7.6206665 -2.6364102 9.1463766 3
7.8290081 -2.6292865 9.1450863 0
8.0833578 -2.6867669 9.0387306 2
12.225273 -2.6401603 9.0251827 11.75
13.820959 -2.6276307 9.0504875 0
14.194951 -2.7117138 9.0117111 7.875
15.149051 -2.6356988 9.0344515 7.8780384
16.707668 -2.6249895 9.0847178 5
16.810163 -2.6305597 9.1782303 4
18.975235 -2.6698604 9.0826883 13.291666
2.1668463 -2.5063813 9.1758623 5.625
2.3033273 -2.4860706 9.1546726 6.875
2.4379582 -2.5322866 9.1065693 9.6376953
2.6012383 -2.4041774 9.1101952 0
3.2254429 -2.4612107 9.0604305 0
3.4835548 -2.483212 9.084857 9.3482819
3.7081006 -2.5015023 9.1251373 11.392035
3.864444 -2.4647913 9.1617718 3.25
4.0565538 -2.495398 9.0838032 8.25
4.2444239 -2.4648855 9.1026134 6.5312405
4.5216103 -2.4587228 9.1056652 5.9691219
4.6497359 -2.5113449 9.1835003 2.5
4.9199586 -2.5000975 9.1409931 3
7.0072632 -2.5276203 9.1020355 4.4117837
7.8448815 -2.5272012 9.1099548 4
8.626379 -2.5719733 9.0429325 6.8632517
8.9194279 -2.5065346 9.0161877 11.429673
10.64847 -2.5381527 9.0160332 12.972656
10.913205 -2.5616946 9.1093044 12.46875
11.121157 -2.4144666 9.1812706 2
12.670413 -2.5660985 9.0364676 10.5
15.451453 -2.5886121 9.1031208 5.875
15.721765 -2.561264 9.0284328 5.4166665
19.828861 -2.4883146 9.1440868 9.5
2.1561036 -2.3851357 9.1598501 6
2.3342252 -2.317708 9.1204147 9
2.5010951 -2.342926 9.082407 12.75
2.6249628 -2.315351 9.1177425 9
3.392653 -2.3559387 9.0820189 2
3.762115 -2.2545466 9.1190357 7.375
3.8264725 -2.3465848 9.1914177 9.75
4.1270256 -2.2236066 9.1522675 5.5
4.318264 -2.2815166 9.0491533 7.2265625
4.4907198 -2.2578983 9.1216431 7.5
4.7736588 -2.2390065 9.1056232 6.5
4.9131937 -2.2414322 9.1501141 5.71875
9.1048422 -2.232646 9.0068779 11.66823
10.899774 -2.2660291 9.041441 12.75866
11.412143 -2.2163165 9.0440388 7.2565646
13.77317 -2.2495227 9.1610069 8
14.104404 -2.2880666 9.0321741 10.75
15.68917 -2.2925072 9.0350046 8
18.337109 -2.346241 9.1159649 15
19.393881 -2.3089962 9.026722 8
19.708607 -2.3319139 9.1869717 14
2.3257756 -2.0676663 9.1458464 12.207031
2.5353153 -2.1117773 9.0589838 7
2.671061 -2.0975449 9.0708427 7.7969837
2.9712546 -2.1873286 9.0639639 13.388888
3.3405185 -2.1981492 9.0469284 4
3.4762497 -2.1549945 9.1276779 13.930022
3.7587011 -2.1010375 9.1128206 10.227235
3.9263082 -2.0662737 9.0879221 7.59375
4.0644455 -2.0926373 9.0770893 7.71875
4.2895808 -2.099818 9.1111317 10.003613
4.5469584 -2.1476893 9.1149855 7.2469425
4.7136669 -2.1077118 9.0974026 7.5
4.8809834 -2.0032306 9.0332804 8
7.1073952 -2.1403389 9.0344162 7.9498696
7.3211212 -2.1163423 9.1113186 8
7.489131 -2.0650458 9.0353231 8
8.2651138 -2.196645 9.0170784 9.480835
8.6360302 -2.0654871 9.0317841 13.231708
8.8909187 -2.0276515 9.0189829 0
9.37292 -2.146657 9.1523304 1
10.204548 -2.1852098 9.0067139 11.301758
10.599503 -2.1285861 9.0201387 11.605225
14.498921 -2.1022539 9.0416336 9.75
18.625784 -2.1422176 9.0624561 14.532986
2.2897954 -1.8579967 9.1539402 13.5
2.4666321 -1.9210764 9.1965427 12
2.621882 -1.8983794 9.1496258 12.75
3.3972268 -1.8473455 9.0383987 14.892281
3.4758244 -1.8502392 9.0345345 6.25
3.7495971 -1.8543197 9.1119194 6.4375
3.833679 -1.9251497 9.110714 8.9360352
4.1017399 -1.8965621 9.1443148 5.5
4.3251195 -1.9090095 9.1080017 8.625
4.4426451 -1.8751142 9.049942 6.25
4.6594515 -1.9118026 9.0943966 9.1905403
4.8879423 -1.890075 9.0894909 7.625
5.0705004 -1.8293458 9.1133175 8.75
