# .PCD v0.7 - Point Cloud Data file format
VERSION 0.7
FIELDS x y z intensity
SIZE 4 4 4 4
TYPE F F F F
COUNT 1 1 1 1
WIDTH 1320
HEIGHT 1
VIEWPOINT 0 0 0 1 0 0 0
POINTS 1320
DATA ascii
-14.616999 4.8936138 3.2567205 11.507812
-14.508231 4.9075947 3.3538711 7.1248169
-14.381466 4.8989425 3.3678563 9.25
-12.046204 4.8248401 3.2890999 6
-11.858938 4.8677492 3.2652824 6.5
-11.742516 4.9169469 3.2854552 7.4053321
-11.592108 4.8256063 3.3337381 12
-9.3070221 4.9450274 3.2428563 10.555338
-9.0353508 4.8583446 3.2390466 3.8787007
-8.9642258 4.9465914 3.2691548 2.3710938
-17.332949 5.0526724 3.3501382 7.195734
-17.148193 5.0450282 3.3948972 5
-14.827408 5.0421047 3.3841879 10.3125
-14.61908 5.1153984 3.3079629 10.0625
-14.450851 5.0649462 3.3711934 10.536377
-14.392602 5.0890417 3.3877847 11
-12.099049 5.0848951 3.3259203 7.9447021
-11.869795 5.1294107 3.2552757 9.0429688
-11.651962 5.0810461 3.3369627 9.8170166
-9.3434734 5.1058264 3.2701106 13.0625
-9.1338825 5.061224 3.2574723 11.5
-8.9585876 5.0580831 3.2590899 3.4492188
-6.2086048 5.0687881 3.2102549 0.5
-6.1737132 5.1660304 3.2233386 0.90625
-17.344351 5.3440075 3.3705845 7.9686794
-14.828918 5.2738352 3.3922229 12
-14.627235 5.254158 3.2762089 11.0625
-14.509598 5.3228459 3.357367 7.8439088
-14.376452 5.3308129 3.3845208 6.9846191
-12.060919 5.2901731 3.3482847 12.302734
-11.822591 5.2785349 3.2755361 12.114502
-11.695253 5.3155856 3.3503194 8.2395382
-9.2910156 5.3230023 3.2687464 9.7929688
-9.047061 5.3053389 3.2557502 9.5
-8.9210262 5.2506361 3.2702107 4.8874512
-6.2146034 5.2746553 3.234293 8
-6.1770773 5.3547311 3.2503722 0.75140381
-17.325848 5.4674702 3.3637087 11
-14.616187 5.4686794 3.2982829 9.75
-14.575031 5.4983702 3.3291869 10.875
-14.391939 5.5806084 3.389493 6
-11.860998 5.5648232 3.2754261 10.055908
-11.66679 5.5396566 3.3826799 11.102234
-11.588163 5.4714012 3.3875241 13
-9.3097229 5.5037556 3.305043 14
-9.098362 5.4809217 3.250504 2.7892179
-8.9300051 5.4942493 3.3174272 4.6953125
-6.6662602 5.5193748 3.23209 13
-6.4357681 5.4560099 3.2983782 1.34375
-6.2184811 5.478344 3.2331221 0.34270108
-6.1669579 5.5284519 3.2321134 0.68690681
-17.30356 5.645092 3.3880396 9.242178
-14.602486 5.6243157 3.3179841 8
-14.5821 5.6523657 3.3496146 11.75
-11.846907 5.6835327 3.2773402 13.203125
-11.66247 5.6770811 3.382163 13.179688
-9.3252401 5.7305765 3.3359275 12.875
-9.1479664 5.7005587 3.2232883 5.34375
-8.9144421 5.6713934 3.3060031 3.1220703
-6.6908312 5.7664614 3.3123927 5.5
-6.2153521 5.7128716 3.3260951 2.7072287
-6.1636801 5.7595148 3.3200078 2.3875427
-14.552106 5.8795891 3.3536053 9.2862539
-11.906346 5.9190865 3.3348079 9.859375
-11.668121 5.8922977 3.3774114 9.4902782
-9.326664 5.8760767 3.3422182 7.380208
-9.0654602 5.8743153 3.3281753 5.1140976
-8.8756828 5.928896 3.3200953 4.0703125
-6.6326447 5.8919854 3.2237308 13
-6.5082555 5.8547392 3.3272538 3.3485062
-6.2905149 5.8599606 3.2420349 2.625
-6.1513953 5.9027987 3.24507 2.6589355
-17.289686 6.1797304 3.3814898 6.1667366
-14.614424 6.0600433 3.3561585 12
-14.56338 6.1074018 3.3537188 11.5
-12.049734 6.1316319 3.3720181 10.25
-11.834949 6.081944 3.292376 13.25
-11.63899 6.06215 3.348536 10
-11.563086 6.1576571 3.3761632 13.5
-9.2246971 6.0050335 3.3528442 13
-9.1521721 6.0810585 3.2850034 9.5
-8.9140005 6.1416125 3.2577491 5.1050081
-6.4982724 6.0339541 3.2433696 6.34375
-6.268322 6.0542083 3.2373714 9.8841143
-6.1685762 6.056654 3.2188725 4.03125
-16.694935 6.2724428 3.257355 11
-14.622423 6.2983599 3.388895 14
-14.576061 6.2982616 3.3385224 12.40625
-14.375504 6.3019161 3.3645892 10.973714
-12.079069 6.3663645 3.3053043 0
-11.864132 6.3222127 3.3042421 14
-11.751713 6.2692156 3.2903993 7.73628
-9.2884626 6.2720985 3.2644751 7.625
-8.9228306 6.2926087 3.2296028 6.015625
-8.7958584 6.2238417 3.3842127 15
-6.1393414 6.2346425 3.2164342 7
-17.385897 6.5407486 3.3353016 0
-16.744289 6.4738665 3.2434313 13
-14.644387 6.5178609 3.232949 0.5
-14.508952 6.5310793 3.3250823 7.75
-13.691854 6.5516939 3.2035737 15
-11.829806 6.5339913 3.2728319 7.5
-11.694218 6.5074396 3.2728724 7.1566067
-11.59587 6.4340963 3.3453941 8.0625
-9.2586498 6.5038071 3.2696729 5
-9.1092815 6.5390902 3.2237086 8.21875
-8.9302654 6.4778118 3.2195277 7
-6.585166 6.5229797 3.2262313 13
-6.1129503 6.4401178 3.2074647 12
-17.28599 6.7148981 3.3512397 7.0286336
-14.879202 6.6705599 3.3373542 1.75
-14.603873 6.6973848 3.2559676 2
-14.485149 6.676209 3.3045659 4.6746407
-14.367098 6.63692 3.3532095 4.7166343
-12.080762 6.6317043 3.290463 0
-11.891004 6.6819372 3.2027552 0
-11.695342 6.7009902 3.2487445 6.703125
-17.357082 6.8338242 3.3364067 0
-14.526409 6.8798561 3.3060951 11.890625
-14.376585 6.9492264 3.2950616 9.4047852
-12.05206 6.8593569 3.2484214 2
-11.862977 6.905694 3.2475152 3.5625
-11.694063 6.8964233 3.2293806 1.125
-9.229969 6.9973335 3.2011313 12
-9.0221195 6.9233079 3.2034714 11.5
-17.159163 4.4819126 3.4333138 5.8538508
-14.393129 4.6545506 3.4130147 11
-14.543408 4.8436522 3.4422529 4
-17.251511 5.1296816 3.4508066 8
-17.149719 5.1376228 3.4145613 4.8094912
-14.341655 5.1223145 3.4354115 11.76709
-11.792918 5.1186361 3.4077451 13
-17.618326 5.2469735 3.4337673 5
-17.136953 5.236299 3.438303 5
-14.467072 5.3021851 3.4200025 10.125
-14.390853 5.3348508 3.4042413 11.25
-17.121395 5.4881272 3.475616 10.067139
-14.451819 5.5255022 3.438097 11.375
-14.37439 5.5425282 3.4288778 10.75
-11.719599 5.5187397 3.4059162 15
-11.575828 5.4508271 3.4119315 14
-6.2096047 5.5283823 3.4857674 5
-6.138165 5.5474329 3.4000151 0
-17.649021 5.7567825 3.5033872 9.5
-17.27924 5.6387758 3.4389102 11.5
-17.135281 5.751276 3.5145605 9.9835129
-14.831818 5.6705027 3.446414 10
-14.479911 5.6656227 3.4312749 11.6875
-14.364243 5.7468028 3.4777894 11.9375
-12.02748 5.7594814 3.4315171 14
-11.698961 5.6340346 3.4129238 15
-11.557591 5.7192245 3.4229574 14
-6.7212682 5.7654319 3.4111412 2
-6.4699292 5.7426186 3.5317831 2
-6.2647591 5.7336822 3.5082235 3.1875
-6.1364236 5.6942463 3.5506577 4.25
-14.462816 5.9152799 3.4645553 14
-14.356993 5.8417602 3.4537835 9.8867188
-11.832547 5.9994125 3.5862925 5
-11.659041 5.9563885 3.4080641 13.25
-11.573852 5.9227276 3.446389 10.9375
-9.4746065 5.873879 3.4325528 4
-8.8991661 5.8618345 3.5403385 4
-6.617198 5.8104215 3.4008918 2
-6.2998958 5.8190155 3.5068686 10
-6.1169147 5.8753562 3.4868469 11
-17.709534 6.1372752 3.5932107 1
-17.137554 6.1467619 3.5054064 6.1645427
-14.495773 6.1096601 3.4292765 9.5631857
-14.350578 6.046926 3.4856334 13
-12.008417 6.0276423 3.4327264 6
-11.668503 6.0475569 3.482897 6.25
-11.54661 6.1195769 3.4611223 13.625
-6.0749626 6.1353898 3.4140928 12.5
-17.225342 6.3592868 3.4809136 12
-14.847273 6.2574234 3.5500073 11.75
-14.60474 6.2056503 3.4074349 14
-14.519386 6.2380304 3.5005524 14
-14.317152 6.3408575 3.4764595 14.59375
-11.989648 6.2719688 3.5647211 15
-17.17573 6.5380974 3.4693718 1
-14.699466 6.5081177 3.5746226 15
-14.313717 6.4908452 3.4613817 14
-17.608231 6.6551476 3.4300318 1
-17.136154 6.611228 3.4483542 7.0620184
-14.485005 6.6124935 3.4306636 15
-14.314438 6.6245785 3.5652032 15
-5.8732691 5.383008 3.7300239 5
-6.8758202 5.4948425 3.7010701 4.03125
-6.68577 5.4608364 3.7378502 2.6440878
-6.5333376 5.473073 3.7507777 2.875
-6.3429384 5.4902897 3.7361832 9.125
-6.118927 5.5238466 3.7194157 0.48165029
-5.9327946 5.540288 3.7559836 0.99707341
-5.6860065 5.5614686 3.7902169 8.1875
-8.9379749 5.7617831 3.7173781 3.389019
-8.7865744 5.7706919 3.764245 3
-6.7601538 5.7071466 3.6588912 1
-6.5317621 5.7174439 3.638865 6.3359375
-6.2447047 5.7690144 3.6440616 1.9166666
-6.1110306 5.7473631 3.6858149 1.5678341
-5.9058852 5.6841288 3.7833683 2.4003477
-5.6587873 5.7163267 3.7963479 6.8586121
-14.424387 5.9150295 3.7806139 0
-14.363243 5.8567605 3.6263938 5
-11.696077 5.9354076 3.7135057 5.3125
-9.609581 5.9338732 3.7597375 4.5
-9.409584 5.9031124 3.6736412 4
-9.1802521 5.8464189 3.7235548 4
-8.8742676 5.8623099 3.7155967 4
-7.1095605 5.9694452 3.7815301 4.875
-6.8920522 5.9294214 3.7481093 3.1404748
-6.6492934 5.8506432 3.6841123 3.0255716
-6.4888716 5.886941 3.6931443 4.6030273
-6.3095398 5.8953004 3.7305868 5
-6.0807948 5.8749666 3.699563 1.9606121
-5.9413962 5.8892212 3.7520015 2.3588996
-5.6659775 5.8996015 3.7878878 6.9524493
-5.5854053 5.8752985 3.7775347 6
-14.635395 6.0283136 3.6696372 0
-14.422614 6.0128794 3.7050893 0
-12.004375 6.0042887 3.7961109 5
-9.6160059 6.0160255 3.7443521 5
-7.1368957 6.0934725 3.7852693 4.71875
-6.9644718 6.0969501 3.7608533 10.5
-6.664547 6.1525745 3.7731671 8.8125
-6.4844503 6.1284389 3.7755203 9
-6.3289046 6.160182 3.7652345 11.5
-6.0857868 6.1066155 3.7035489 9
-5.9227633 6.1529493 3.7575636 7
-5.6898928 6.0624161 3.78951 3.9960115
-5.5796108 6.084218 3.7801595 7
-17.712446 6.2084427 3.7843843 5.9993486
-6.5246873 6.2197504 3.7497211 12
-6.353673 6.2142296 3.7498639 15
-5.8678432 6.2816224 3.7514517 14
-5.6769533 6.2772264 3.7718205 11.5
-17.368591 6.5304203 3.7870474 13
-17.071747 6.5273743 3.7265103 13
-5.8713703 6.5607271 3.7827446 15
-5.6560574 6.5059943 3.7961259 10.804688
-17.688356 6.6385422 3.6846094 13
-6.263567 6.6398668 3.7914858 12
-5.7197323 6.6529503 3.788254 13
-7.4706049 4.7731223 3.9783444 5
-6.9292173 4.7059512 3.9870725 1.5
-6.6184301 4.726758 3.9651036 1
-6.5109234 4.6971321 3.9888332 1
-6.3558769 4.7665262 3.9959941 1.25
-6.1152925 4.7299919 3.9874573 1.6666667
-5.8824043 4.7556109 3.9789133 3.125
-5.6349783 4.7296209 3.9761808 1.5
-7.048142 4.9173651 3.9857762 13
-6.9992843 4.9265518 3.9811275 15
-6.6911268 4.9084077 3.9787602 13.25
-6.5082932 4.9036026 3.9522793 15
-6.0661974 4.8256354 3.9754429 4
-5.8384662 4.9087934 3.941231 14
-5.6762314 4.9085503 3.9691892 0.98772281
-5.5607362 4.8527751 3.9588451 0.875
-7.6927233 5.0489788 3.9849443 1.955054
-7.4204907 5.1402626 3.9746978 0.75674486
-7.2597651 5.1833758 3.9637918 3
-7.1093712 5.1695185 3.9074278 2
-6.9437294 5.092103 3.9519722 0.49886489
-6.7249274 5.1583452 3.844779 3.5
-6.5604162 5.0823355 3.9441156 1.1072651
-6.2659793 5.0970054 3.9316616 4.8180642
-6.1141891 5.1927958 3.883976 6
-5.9657569 5.0991068 3.90768 1.7734311
-5.6663465 5.1739225 3.9669943 1.4974875
-5.5685496 5.0660753 3.9507289 1.875
-7.0752831 5.300725 3.8372917 1.6620352
-6.9462972 5.2973566 3.8429196 9.75
-6.7081275 5.2474833 3.8851206 7
-6.5219765 5.2980309 3.8529656 5.5
-6.3411331 5.329113 3.8157363 14
-6.135385 5.2290878 3.8518438 8
-5.6423979 5.3457565 3.9292157 4.2397351
-5.5731702 5.2766981 3.8432379 2.875
-9.8037891 5.4682498 3.9135962 3
-7.7018843 5.4481983 3.9487226 2.3177083
-7.4247308 5.4875898 3.9206624 1.7353626
-6.2765636 5.4798918 3.8033907 9
-6.1839333 5.4485874 3.8045039 8
-5.9192867 5.5659409 3.8259048 0.41099548
-5.7162819 5.5362616 3.8891444 1.1998942
-5.5566154 5.5013714 3.8311553 4
-8.6940308 5.725143 3.8076341 3
-5.8626461 5.7428923 3.8390353 1.1231627
-5.6768141 5.7432446 3.8553257 0.73527896
-5.5951104 5.721405 3.882041 9.25
-17.15065 5.932188 3.8550444 0.5
-14.95113 5.9271374 3.8445196 0
-14.621071 5.8854198 3.8318515 3.75
-14.286583 5.9074001 3.8716195 4.5833335
-12.219627 5.8244209 3.8293798 4.5
-11.540184 5.9168377 3.8315113 5.5
-8.7809906 5.8346868 3.8089561 4
-8.5731459 5.921093 3.8649113 4.1074071
-8.1466169 5.9302435 3.9493828 0
-7.7615218 5.84445 3.9320972 1.25
-7.4847417 5.837842 3.921555 0.54918981
-7.1560812 5.8770285 3.8170443 0.75
-6.4159832 5.968514 3.802362 3
-6.3289008 5.9103804 3.852958 2
-5.9122663 5.8771338 3.8287039 1.53125
-5.6644826 5.8844023 3.8474815 1.9447914
-5.5847034 5.9181948 3.9157867 8.625
-17.388414 6.169281 3.8768711 6.03125
-17.119175 6.1231952 3.8329446 6.0199108
-11.438749 6.1745343 3.9240129 5.4722223
-9.4309893 6.1945243 3.8507831 5.4375
-9.0918226 6.1239491 3.840148 5.166667
-8.578907 6.1565638 3.8788297 5
-7.4904909 6.0923281 3.9064574 2.75
-7.237134 6.0933747 3.8641937 1
-7.1011343 6.1629906 3.8790295 4.5
-6.982585 6.1297884 3.8034196 4.3472452
-6.630136 6.0113397 3.8113189 3
-6.513093 6.1513634 3.8262806 6.1038785
-6.119195 6.1883755 3.8267059 8.2282362
-5.936676 6.1352243 3.8484757 3
-5.702364 6.1158772 3.8695765 2.7970555
-5.5905733 6.0936279 3.9082975 12.0625
-15.235668 6.3512259 3.9712925 4.75
-14.951063 6.2390609 3.8965173 7
-14.635454 6.3256893 3.8789082 8.625
-14.188433 6.2612658 3.9170418 7.25
-12.583708 6.2439218 3.9350147 4.5
-12.306139 6.2550917 3.941751 5.8125
-11.834151 6.2521782 3.9333243 6.171875
-11.168347 6.3379097 3.965404 6
-10.746235 6.3516188 3.9775672 6
-10.124756 6.2192945 3.9200134 5.5
-9.7698746 6.2733607 3.8803313 5.6927085
-8.2338209 6.2994089 3.9481096 2.6145833
-7.8649244 6.3140697 3.9203749 4.9176784
-7.4263649 6.2357593 3.8680851 5
-7.3503532 6.2669334 3.8809566 4.7481785
-7.1938205 6.2424483 3.8052855 5
-6.8724728 6.2589455 3.8282077 10
-6.7206879 6.2485876 3.8518271 4
-6.3148117 6.2405643 3.8451014 8
-6.0480061 6.2504859 3.8288071 8
-5.9658995 6.2422419 3.8238242 7
-5.6851587 6.2676315 3.8459656 4.5156789
-5.5917168 6.2997351 3.9113412 10.788086
-15.261546 6.4358397 3.9702597 0.75
-14.730372 6.4799094 3.8204916 10.333333
-14.355948 6.5201688 3.8263891 13.25
-13.752422 6.5524187 3.9808078 0.5
-12.636553 6.4883742 3.951261 4.71875
-11.826683 6.5587525 3.9831538 3.5
-10.723321 6.5289307 3.9593382 6.125
-10.28565 6.596982 3.951452 6.5833335
-9.4066792 6.5979667 3.9301963 5.25
-9.2886772 6.5865045 3.9708159 0
-8.9789963 6.5327244 3.9178386 6.59375
-8.5788574 6.4976406 3.9061255 6.25
-8.2173004 6.4684887 3.8978233 5.7669272
-7.8247185 6.5696135 3.9004388 3
-7.7253041 6.4918656 3.9053338 3.5696929
-7.3275557 6.5479803 3.873652 6.2244439
-7.0126586 6.5783553 3.830487 13
-6.9684029 6.5394635 3.8499787 9.2133732
-6.7213783 6.5464149 3.8204536 13.5
-6.5072246 6.5247703 3.8595591 7.6950378
-6.3454766 6.5227871 3.864994 5.625
-6.0784025 6.5141506 3.8357978 9.1126785
-5.8781943 6.5359879 3.8803351 3
-5.6977406 6.4641161 3.8666589 5.9399338
-5.5917063 6.5375662 3.9112761 11.815448
-13.332033 6.7027526 3.9947715 0.5
-13.177404 6.6221776 3.9702859 0
-12.117251 6.6302795 3.9814394 5.5833335
-11.95653 6.7887707 3.9360547 1
-11.429744 6.6844301 3.9875715 3.21875
-10.963254 6.6590776 3.9773805 3.3541665
-10.614159 6.7714934 3.9657705 3.5
-10.225862 6.7237797 3.9352107 0
-10.100204 6.6716795 3.9597659 0
-9.8389482 6.6723948 3.9205108 3.25
-9.7638559 6.6058021 3.9716537 0
-9.5574341 6.6503487 3.9430172 0
-9.1181374 6.681572 3.9579697 3.5
-8.6833162 6.7351875 3.9027746 3
-7.5114083 6.6413751 3.9308999 4
-7.0549622 6.6319213 3.8287339 12
-6.960135 6.6304841 3.8131201 15
-6.7052503 6.6222811 3.8560972 8.75
-6.5467553 6.6999626 3.8922291 7
-6.3833299 6.6066785 3.8291328 9
-6.1370244 6.6078291 3.8061752 14
-5.8704462 6.6340618 3.8735332 6.25
-5.6703954 6.6477051 3.8554912 9.0562134
-5.5909967 6.7253737 3.8791773 12.4375
-14.822639 6.8460674 3.9916158 1
-14.146323 6.9273138 3.9711528 1
-13.924718 6.9542494 3.9926076 1
-13.4549 6.8039298 3.994206 7
-12.93257 6.8009834 3.9739954 1
-12.681401 6.8215532 3.9769826 2.25
-12.541696 6.8533378 3.9769349 0
-12.239079 6.8052979 3.984184 1
-12.17753 6.8041053 3.9622047 1
-11.676387 6.8368454 3.9404066 3.5
-5.6113825 6.8389144 3.9158785 13.65625
-5.5939188 6.8992014 3.918304 14.354166
-7.3075857 4.7354174 4.0015807 2
-6.8675261 4.7627306 4.01408 3
-6.6541042 4.6739063 4.0127721 0.125
-5.6697159 4.7706184 4.1095982 2.5999999
-8.3531551 4.9588232 4.0846872 7.5
-7.8221111 4.9508076 4.0266933 0.6397087
-6.9349833 4.9266253 4.1787109 14
-6.6359353 4.925005 4.1920023 13.25
-6.5938172 4.8129106 4.0219436 0
-9.1714811 5.0098438 4.1312404 15
-7.2788696 5.0731926 4.1078348 12.75
-6.0682793 5.1789584 4.049315 11
-5.6557474 5.134428 4.1084623 3.2676318
-12.881384 5.3584094 4.157784 12
-12.356663 5.3325348 4.1590405 11
-11.804443 5.3479385 4.1463556 12
-11.432641 5.3837914 4.1528139 7
-11.398245 5.3318624 4.1309791 13
-10.88808 5.3441591 4.1531429 13
-10.533003 5.3854661 4.1688261 15
-10.321492 5.2641568 4.1225405 13
-9.9317322 5.3576107 4.1400523 12.5625
-9.6183319 5.2885861 4.121841 13
-9.4349041 5.2737842 4.1549516 14.5
-9.3234482 5.2808366 4.1057615 11.25
-8.8913136 5.3131151 4.1433501 10.5
-8.6784039 5.3340111 4.0994301 13.5
-8.55023 5.2482615 4.1252971 12.25
-8.1218624 5.2588835 4.080132 10
-7.9320564 5.2998557 4.1475086 13.484375
-7.318059 5.2426367 4.1130805 9.5
-7.1436462 5.2944384 4.1112156 13.354939
-6.9729333 5.2655735 4.0844126 12
-6.5257053 5.2790518 4.053318 14.5
-6.274117 5.293046 4.0457067 13.5
-6.0687284 5.2068243 4.0216961 10
-5.6501503 5.2888331 4.024662 6.0052085
-5.5911145 5.2754774 4.0590591 12.5
-14.335319 5.5068817 4.1840792 6
-14.005565 5.5895414 4.1913257 14
-13.773838 5.4498229 4.1957779 12
-13.560914 5.5431199 4.1842279 13.5
-13.002311 5.4717364 4.1507626 13
-12.647651 5.5179691 4.1988659 9
-12.525904 5.5371056 4.156755 15
-12.092317 5.4846721 4.1559267 14
-11.712792 5.4824095 4.1499844 12
-11.171329 5.4920602 4.1906338 10
-10.605295 5.4377446 4.1549029 14.25
-10.014817 5.4569769 4.1078548 11
-9.8023949 5.4623737 4.0965047 12
-9.2502747 5.4080925 4.1281381 10
-8.7228966 5.4008574 4.177835 12
-5.6443715 5.4838452 4.0883121 4.7657685
-12.610907 5.6123581 4.1703272 15
-11.977091 5.6614108 4.1777234 15
-5.617135 5.6847324 4.0644865 8.458333
-17.045387 5.8798952 4.1368084 0
-5.6809154 5.8751059 4.1250176 7.75
-5.5799799 5.9674644 4.0274115 9
-17.755243 6.1504736 4.0557976 0.875
-17.520105 6.1894808 4.0790911 0.75
-17.015707 6.165431 4.0334649 5.791626
-5.6690388 6.0862646 4.1228838 4
-5.577518 6.0718384 4.0830512 9.5
-18.058849 6.266077 4.1467743 0.5
-16.701471 6.3009582 4.1201744 0.75
-16.377724 6.3536749 4.1495094 0
-15.284691 6.3037033 4.0672088 0.875
-14.996367 6.2568426 4.0347085 5.3125
-14.698722 6.3021193 4.0780954 3.25
-14.21523 6.2648058 4.0674472 3.1666667
-13.894415 6.3608904 4.0553684 4.609375
-13.22544 6.3865914 4.0295706 0
-12.473841 6.2597747 4.0094509 0
-12.030169 6.2682962 4.0003572 0
-11.511038 6.2561922 4.0123053 0
-11.152238 6.3987947 4.0130448 0
-10.626972 6.3822594 4.0005856 0
-5.5760746 6.3014512 4.1319284 11.498151
-18.018461 6.5800967 4.1082578 2
-12.57576 6.5767765 4.026967 5.125
-12.231664 6.5998411 4.1325994 0
-10.699242 6.5842366 4.0204649 0
-10.550984 6.5736341 4.1301098 0.125
-9.5632505 6.5547113 4.1073723 0
-5.6418962 6.5657635 4.1122527 8.958334
-5.5828342 6.5714865 4.1327753 10.51502
-17.553045 6.6573362 4.1327682 4.4375
-16.909203 6.6747894 4.0285244 1.5
-16.610947 6.7060242 4.1780529 4.078125
-16.396616 6.64186 4.1956306 0
-16.161499 6.6220617 4.1654711 3.5
-15.268995 6.6548481 4.0896349 1.875
-15.001644 6.6861315 4.0848083 0
-14.981969 6.6726427 4.1629486 3.6432292
-14.690826 6.7218542 4.0537395 0
-14.564131 6.7270365 4.0782571 4.34375
-14.261581 6.7396097 4.0219946 0
-14.154577 6.656466 4.0931101 5.3263888
-13.81572 6.7104106 4.1777735 0.91666669
-13.684082 6.7542729 4.123827 0.5
-13.48615 6.6360722 4.1351838 1.84375
-13.142887 6.7057123 4.0699568 2.7395833
-12.950605 6.6831717 4.1137781 1
-12.507055 6.6802616 4.0375876 0.5
-12.154185 6.6597829 4.038424 6.0625
-11.886053 6.6515989 4.0842638 1
-11.794664 6.6430969 4.1279168 1
-11.385573 6.6171179 4.019258 0
-11.098698 6.6869106 4.098052 1.9895834
-10.104086 6.6875253 4.1773129 0
-9.8313599 6.7277617 4.0457673 1
-9.7585812 6.733809 4.1332774 3.75
-9.417305 6.6970887 4.0787191 3.1276042
-8.130702 6.6901703 4.1975298 5.3333335
-7.9604893 6.6681519 4.0458546 3
-7.7704792 6.6559854 4.0917397 4.7447915
-7.2768021 6.6123638 4.1152716 4
-6.4963617 6.6760826 4.1787128 6.4166665
-5.8012609 6.6618185 4.199039 7
-5.6454544 6.6884418 4.0987396 9.125
-5.5964355 6.7391334 4.162755 11
-18.096376 6.8724813 4.1872983 2
-17.818144 6.8306446 4.1613798 3.96875
-17.023577 6.8624678 4.1510277 1
-16.934422 6.8361588 4.0643373 4
-16.40559 6.9691648 4.1120334 2
-16.276707 6.8819313 4.0875902 2
-15.91266 6.9620271 4.0809879 2
-15.742495 6.8302822 4.1472921 1.46875
-15.310607 6.8956285 4.0973506 3.25
-15.134408 6.9197006 4.0221529 1.5
-14.873094 6.8355651 4.1477709 5.7430553
-14.2992 6.8539619 4.1509123 3.375
-14.089773 6.8048487 4.0845909 2.5
-13.923853 6.8038526 4.186553 2
-13.704304 6.8251987 4.1477785 1.9166667
-13.581682 6.8080282 4.1142139 3.5
-13.107271 6.81703 4.1008101 1.25
-12.940216 6.8109212 4.0999389 2
-12.12136 6.8430614 4.1384535 6
-10.995471 6.808394 4.0559816 7
-5.6840868 6.8455534 4.0706263 12
-5.5854282 6.8432174 4.1987481 13.9375
-5.638011 4.7589273 4.2806811 1.75
-8.4134874 4.941721 4.2320209 15
-5.6708393 4.8548093 4.3598022 5
-14.39661 5.1940641 4.2959876 12
-12.505983 5.1466093 4.2500939 10.5
-11.760176 5.0915747 4.2643023 13
-10.703737 5.0872908 4.2754803 14
-9.891695 5.0189314 4.2974567 14
-9.1767559 5.0017805 4.2141733 15
-6.1375413 5.1668921 4.2481942 11.416667
-5.6148849 5.1347485 4.3379993 4.25
-5.556932 5.0634832 4.2768984 1.8333334
-14.999339 5.3863173 4.3123493 12
-14.677484 5.3963251 4.2308111 11
-13.494508 5.3816586 4.3018832 11
-11.011356 5.3879962 4.2044058 8
-10.873299 5.3393536 4.2579813 14.0625
-10.480847 5.3252196 4.2511935 13
-10.231668 5.292912 4.2448859 13.75
-9.9915247 5.3574328 4.2829227 12
-9.4799252 5.2760725 4.2265186 12.552083
-8.935257 5.3225975 4.2605219 10.5
-8.6046438 5.2581844 4.2505684 13.96875
-8.4469643 5.3389621 4.3105001 6
-8.0989552 5.2999239 4.3503752 10.833334
-7.392736 5.2578335 4.2584453 8.7777777
-6.5701084 5.2618504 4.2184753 13.375
-6.2861996 5.291069 4.2103844 13.333333
-5.6694851 5.2319283 4.2968845 4.6875
-5.5923972 5.3910713 4.2198696 10.104167
-17.822268 5.5149708 4.3309417 10.333333
-17.411551 5.5359716 4.2742991 10.75
-16.72921 5.4803925 4.288476 11
-16.00514 5.4432402 4.2131634 10
-15.830392 5.4988546 4.2279873 11
-15.687738 5.5200906 4.2695513 10
-15.558785 5.4154801 4.2216372 9
-14.67749 5.4830017 4.2726035 12.125
-14.489211 5.5532403 4.2182236 13
-14.176745 5.5682092 4.3283153 11.333333
-13.860149 5.4822617 4.2779288 11.78125
-13.775297 5.5019836 4.2109728 13
-13.511746 5.4577322 4.3305502 11.5
-13.013969 5.4780478 4.2495065 12.927084
-12.863549 5.4977756 4.2495232 13.5
-12.645115 5.423903 4.3308764 12.75
-12.373212 5.4825888 4.2677326 14.5
-12.195332 5.5049582 4.2702265 14.270833
-11.727886 5.4571819 4.2870541 14.375
-11.334068 5.4408202 4.2308607 12.9375
-11.119062 5.4069223 4.2100382 15
-10.718535 5.4850888 4.2198553 15
-5.6528196 5.4736223 4.2617846 3
-18.055323 5.6642737 4.3475308 11.666667
-17.737492 5.711441 4.3201709 10
-16.620888 5.6106396 4.2579937 12
-16.556892 5.6130109 4.3060379 12
-16.368576 5.6624966 4.3432608 8
-15.71279 5.639154 4.2953992 12
-15.550365 5.7370806 4.2939725 13
-15.274832 5.7477245 4.3618565 13
-15.194775 5.7386632 4.2790232 13
-14.569442 5.6008768 4.2106485 8
-14.168974 5.7121992 4.2392073 9.25
-13.827457 5.7456789 4.320107 14
-13.788606 5.7450933 4.2530661 14
-13.504799 5.7100182 4.3172016 14
-13.160099 5.6112294 4.2512808 10
-12.614292 5.6041298 4.2552118 15
-12.294258 5.6904197 4.2241445 15
-12.187011 5.6777372 4.2878571 15
-5.6363745 5.7047892 4.3689375 5.25
-5.5912457 5.7968216 4.2451115 10.070995
-5.6548328 5.8397446 4.2675819 4.1665149
-5.5822721 5.8162422 4.317234 7
-5.6704469 6.0939503 4.3466072 5.3890438
-5.5781126 6.0190835 4.2997246 7
-5.6496239 6.2615814 4.3442349 8.4375
-5.5864086 6.3396716 4.375926 9
-5.6520376 6.5179873 4.2775283 7.9491539
-5.5867429 6.5307422 4.2187543 10
-17.837734 6.7017756 4.2082071 3.9375
-16.464527 6.7376704 4.376399 1
-15.753043 6.7285509 4.2296181 1.34375
-15.426178 6.6868625 4.2598991 0
-14.85004 6.7053909 4.3138795 0.5
-14.3009 6.7319083 4.3040395 0
-11.243993 6.6785011 4.2547841 0.25
-8.9544172 6.723103 4.2778397 4.5034723
-8.5350389 6.6818314 4.2820063 5.25
-7.1374207 6.6038218 4.3795962 4
-6.2040148 6.6900258 4.3899555 7
-6.1032629 6.6461701 4.2710934 4.625
-5.6171503 6.6893539 4.2469683 10.789062
-18.071323 6.8274531 4.3349085 1.25
-17.675789 6.8329802 4.3036828 0.5
-17.448778 6.9351954 4.2658095 1.9166666
-16.51252 6.8809247 4.2085676 1.75
-16.381561 6.8718591 4.2815208 1.5
-15.809526 6.8407664 4.2571778 1
-15.693496 6.8102374 4.2830238 1
-15.579528 6.8414688 4.304431 2
-14.621307 6.8465433 4.2197084 7
-12.527387 6.8670588 4.249505 3.75
-11.807724 6.8364525 4.2375574 5.5
-11.339676 6.8302727 4.2161298 6.125
-11.189134 6.830833 4.2258263 7
-9.9203253 6.8105221 4.2871966 7
-5.6601925 6.8924608 4.2350206 12.935872
-8.0095835 4.9151568 4.5687265 9
-7.882575 4.959877 4.5696249 11.833333
-6.6105413 4.9533434 4.5505161 13.166666
-5.6734834 4.8444557 4.5144215 3
-5.5550513 4.905663 4.5831647 1.2574073
-9.3331909 5.0239487 4.4904552 15
-5.6676254 5.1397004 4.5175457 2.5618119
-15.053543 5.382412 4.4802351 12.25
-10.595252 5.3747902 4.5723 13.75
-9.4778252 5.2987928 4.5096579 12.458334
-8.1469831 5.3379655 4.5163989 6
-7.2343855 5.2372751 4.4870186 10.5
-5.6530666 5.3324804 4.5181684 3
-5.5607576 5.3065977 4.4938722 5
-18.076256 5.574882 4.4847651 11
-17.738007 5.5041642 4.5965147 7.5
-17.343348 5.4801865 4.4597912 10
-16.883705 5.5752549 4.4338598 11
-16.732475 5.4964933 4.5653181 11
-15.746806 5.4881124 4.5039835 9.9375
-13.898445 5.5015945 4.5996203 11.604166
-5.6491113 5.5378275 4.5403624 3.1303089
-5.559485 5.4324603 4.5591588 5
-18.04439 5.7652521 4.5824156 11.25
-17.47839 5.7077365 4.54322 12
-16.583891 5.6223078 4.5689635 12
-15.860168 5.6891074 4.5933309 12.416666
-15.512575 5.6843791 4.5135307 13
-14.443643 5.6102743 4.5793839 8
-13.103786 5.623271 4.5592365 10
-12.602679 5.6802382 4.5680227 15
-12.178979 5.6733322 4.4986105 15
-5.657814 5.7425375 4.517694 3.6419201
-5.5884433 5.692503 4.5782423 6
-5.6944256 5.9617319 4.413918 6
-5.6418734 6.0977659 4.5254622 6.25
-5.6445665 6.2749014 4.4405823 8.1875
-5.5732789 6.2508388 4.5482287 7
-5.6628199 6.4541698 4.481883 7.5625
-5.5859432 6.4703517 4.5991106 5
-16.256689 6.716198 4.5927062 0.5
-15.721568 6.7930822 4.5978818 2
-15.398474 6.699935 4.564537 0
-15.007379 6.7265596 4.5949831 0
-12.644321 6.6814523 4.5474901 0.25
-12.060537 6.7119908 4.5032125 1
-11.956853 6.6363077 4.4630136 0.5
-10.947792 6.6746349 4.544682 0.33333334
-10.209526 6.7169046 4.5648041 3.6180556
-9.7814016 6.742322 4.5628319 4.1289062
-9.2783985 6.7401147 4.5194116 5
-8.9420443 6.6847339 4.5943604 2.03125
-8.7078342 6.6776581 4.5436954 2
-6.5086927 6.70895 4.5333385 6.5234375
-6.2345428 6.6787472 4.4859223 4.5
-5.6649446 6.6829276 4.5639391 12.5
-5.5924439 6.6125317 4.533299 11.027409
-17.746414 6.8559003 4.4599161 1
-17.361349 6.890883 4.4195256 2
-16.213968 6.8951721 4.553061 1.8888888
-15.000231 6.8821898 4.4565082 7
-14.986918 6.970798 4.5716586 1.8333334
-14.217659 6.8500051 4.5638885 2
-13.76658 6.858983 4.4433007 1.75
-12.897972 6.868125 4.484612 4.5
-12.6364 6.8948975 4.4639163 7
-12.128132 6.8684597 4.5044003 7
-11.80703 6.8432202 4.4663744 7
-11.781445 6.8426409 4.5579529 4
-10.664895 6.8471279 4.5332174 7
-10.2607 6.8287129 4.4095612 7
-5.6182227 6.9873576 4.4561744 14
-5.5846343 6.8694973 4.5949969 13.625
-5.6898222 4.7988257 4.655262 1
-8.8683462 4.9393358 4.7052064 14
-8.5705748 4.9708071 4.6499071 13.53125
-7.0567017 4.9631357 4.7138486 13.5
-6.229485 4.9528112 4.6426916 15
-5.6812773 4.854763 4.7171621 2.875
-12.740357 5.1727943 4.6371737 13
-11.876481 5.115633 4.6086473 13
-10.8982 5.1099968 4.6253004 14
-9.9952536 5.0423794 4.6410308 14
-7.3854938 5.0699406 4.6171365 14.506945
-5.672081 5.1227655 4.757195 3
-14.596107 5.3838215 4.6672468 12.291667
-10.308149 5.3498573 4.6619463 13.25
-9.76441 5.327467 4.6205654 12.090278
-9.0804901 5.3156681 4.6582751 9.666667
-8.609148 5.2774391 4.6130695 13.96875
-8.0996885 5.3207521 4.6828156 8
-7.7819152 5.3069086 4.6059055 11.484375
-7.1040831 5.3606548 4.6466436 14.15625
-6.5693436 5.3165627 4.6481323 14.5
-6.2662563 5.2628574 4.7088237 11.984375
-5.6406107 5.3152676 4.6592503 3.5
-5.5754805 5.3162103 4.698462 3
-15.283617 5.4153776 4.6497993 12.166666
-14.081127 5.5410247 4.6569061 8
-13.307622 5.4940634 4.7510605 11.5
-13.054461 5.4466867 4.6241531 11.802084
-12.706161 5.5242825 4.6537991 14.305555
-12.297715 5.5317702 4.6483612 14.083333
-11.780542 5.4883633 4.6723018 14.375
-11.379723 5.4026575 4.6465816 13.625
-11.080923 5.4076509 4.6016159 14.190104
-5.6031137 5.4007249 4.7407346 1
-5.5612211 5.476222 4.6282072 3.6875
-17.872389 5.6842055 4.6135945 11.5
-16.962116 5.6365442 4.6408224 12
-16.273769 5.6731396 4.6430173 8
-14.202696 5.7026329 4.7275238 13.583334
-13.831422 5.7412229 4.6125698 14
-5.6497922 5.7040229 4.6869612 2.3333333
-5.6672902 5.9118743 4.6185732 4
-5.5852094 5.8294859 4.654767 6.5721354
-5.6723719 6.1521382 4.6446471 3.7549334
-5.5912218 6.1482515 4.6760573 3
-5.5897884 6.2863941 4.6179476 7.8800478
-5.6619987 6.5772448 4.690897 7.5632582
-17.759943 6.75529 4.7743587 0
-14.690203 6.7301488 4.6202335 0.33333334
-14.059287 6.7668905 4.6837349 1
-13.787635 6.6677694 4.7985616 0
-13.231178 6.7536306 4.7340055 1
-13.094751 6.7262917 4.647912 0
-11.363989 6.686121 4.677866 0.33333334
-10.541958 6.741436 4.645762 3.7291667
-9.0269661 6.7462587 4.6972837 4
-8.2147255 6.6358151 4.6175528 0
-7.3020897 6.6621113 4.6046267 3.875
-6.9821477 6.6521635 4.6594496 4.71875
-5.6752577 6.7409563 4.6549826 8.3125
-18.12845 6.8868742 4.7296457 1.5
-17.370785 6.8760567 4.6229334 1
-17.022022 6.9595447 4.6645603 1.75
-15.877961 6.8933372 4.6866689 3.9375
-15.389854 6.9038982 4.6162109 5.3333335
-14.663267 6.9040513 4.6571026 2
-13.359425 6.8804407 4.683948 4.4166665
-13.163235 6.9187565 4.6219792 7
-12.485518 6.8850822 4.651938 5.4583335
-11.220278 6.9184217 4.786881 0
-11.091814 6.8431463 4.6997261 7
-9.5936575 6.810266 4.7175612 3
-5.6061392 6.8758755 4.6219053 13.922916
-5.5665426 4.7866693 4.8850865 1
-7.8501558 4.9889183 4.9920182 12
-6.2749739 4.9847274 4.9926281 14.5
-5.6587858 4.8478785 4.9314175 4.5
-12.889556 5.1942754 4.8304892 13
-11.962206 5.1346569 4.8611627 13
-11.091921 5.1348982 4.9723206 14
-9.3870974 5.0184994 4.8802886 15
-5.6463394 5.142714 4.9130764 2.8252139
-5.59377 5.0834756 4.8446865 1
-8.1175995 5.3310232 4.9495764 11.25
-7.8636045 5.3297935 4.9546647 11.479166
-7.3124361 5.2329426 4.9653411 13.5
-6.2849569 5.2840648 4.9988475 12.072917
-5.6497889 5.2169638 4.9148264 3
-5.5925241 5.2814369 4.929575 3.9104166
-17.66897 5.5883484 4.8902559 6
-17.354847 5.5066948 4.9360681 9.166667
-16.897768 5.597568 4.8501949 11
-15.766695 5.4511566 4.937645 10.40625
-15.460217 5.41749 4.8971987 11.75
-14.04448 5.4491138 4.9139814 10
-11.030312 5.5206542 4.9580584 12.375
-10.748655 5.4789252 4.8991632 6
-10.5319 5.4259758 4.9690866 14.208333
-5.6167793 5.561656 4.8119073 3
-17.955128 5.6905193 4.8878975 12
-16.704411 5.6430826 4.9559298 12
-16.13925 5.700027 4.9885173 12.125
-15.038364 5.6045179 4.946259 13
-12.396897 5.6937513 4.8222651 15
-17.934156 5.827291 4.8392453 12
-5.679842 5.8240671 4.9898777 0.7231397
-5.6751914 6.1630764 4.9886799 3.0595558
-5.5914383 6.2737384 4.9794455 11.698305
-16.072693 6.7070532 4.9297695 0
-14.973251 6.7579441 4.9670486 0
-14.489086 6.7637968 4.9484119 0
-14.348728 6.724165 4.8651142 0.5
-13.445166 6.6685328 4.9072924 1
-12.928887 6.7537074 4.9095168 0.16666667
-12.142891 6.7033195 4.9930062 1
-11.766689 6.6971493 4.9315109 1
-10.972112 6.7063084 4.8955317 0.66666669
-10.512047 6.7074871 4.9423809 0.39583331
-10.147985 6.6758194 4.9524016 0.39583331
-9.4856844 6.7429709 4.8618875 3.1041665
-9.0893946 6.6824861 4.9549174 0.33333334
-7.3261166 6.7414365 4.9504023 6.1875
-7.0748711 6.6715679 4.9038334 4.5833335
-6.5596628 6.7769227 4.8759427 7
-5.7289782 6.661294 4.9276276 5
-5.5931053 6.6489029 4.9063482 11.322945
-18.068964 6.8374772 4.9398375 1
-16.255545 6.9574652 4.9435196 7
-13.396297 6.9259834 4.952179 6.28125
-12.954914 6.8872099 4.8869138 5.708333
-12.238731 6.8956261 4.9876704 6.4722219
-12.118479 6.8849878 4.90166 7
-11.746751 6.8849912 4.9405994 4
-11.32775 6.886816 4.8009605 7
-10.106954 6.8100796 4.9217644 0
-5.669692 6.8025699 4.8425674 8
-5.5914941 4.7945995 5.0240698 0
-9.0124693 4.9984713 5.0388122 13.197917
-8.6298857 4.9975286 5.0017095 14.003471
-8.1452694 4.9440784 5.0343475 11.5
-7.3874846 4.997654 5.0408316 14
-6.9658642 4.9928722 5.0445261 13.5
-6.7107058 4.9929471 5.1015601 13
-5.672893 4.8429842 5.1377382 4.5
-11.207484 5.1519866 5.1686912 14
-10.132171 5.0771933 5.0797329 14
-9.6761713 5.0237131 5.074111 14.75
-5.6525984 5.02175 5.1526566 2
-5.5564489 5.0284843 5.0425262 1.7972221
-14.68576 5.3965635 5.10288 12.0625
-10.144011 5.370657 5.0092702 12.625
-9.7631397 5.3727646 5.0664229 12.333334
-9.3294392 5.3271847 5.1002121 12.125
-9.0898981 5.3964667 5.0709109 8.75
-8.6150436 5.3049355 5.0478721 14.03125
-7.0947661 5.376997 5.0097446 14.340278
-6.5643315 5.3411932 5.0602913 14.5
-16.712538 5.5256948 5.116919 11
-13.817439 5.5365486 5.0105162 12.75
-13.417573 5.4950581 5.0728636 12.583334
-13.059324 5.4451675 5.0148964 11.9375
-12.552731 5.5539799 5.0018444 14.140625
-12.072205 5.4987001 5.1574402 13.75
-11.747837 5.450242 5.0607519 14.166666
-11.397411 5.4461584 5.0586624 14.0625
-10.347555 5.4734955 5.1548667 6
-5.667563 5.4796052 5.019783 1.3163745
-18.075529 5.7968459 5.0344906 11.25
-17.509346 5.6581736 5.1085997 12
-15.775428 5.6924415 5.0743332 12.333334
-14.457305 5.6632767 5.0278974 14
-14.148033 5.6681767 5.0737462 13.166667
-13.994294 5.6572633 5.1641617 9
-12.966243 5.6494269 5.0357475 13.333333
-12.702129 5.7275033 5.057044 15
-5.5970592 5.8449268 5.0147495 9.770834
-17.645269 6.778409 5.0939279 0
-15.895784 6.7598557 5.1288671 0.5
-15.366673 6.7365589 5.0278177 0
-13.735382 6.6941957 5.1150227 0
-12.678764 6.6665206 5.074358 0.16666667
-11.48635 6.7052221 5.0766411 0.33333334
-9.8979368 6.7960277 5.112843 4
-9.7557678 6.7643933 5.0228157 2.6523438
-8.5602646 6.6468987 5.0031834 0.055555556
-8.1401291 6.7071819 5.0723314 0
-6.5556736 6.7691422 5.1191955 5.71875
-6.1994376 6.6770229 5.072432 3.625
-5.6832056 6.6514416 5.0741911 7.4355979
-18.077766 6.8666544 5.0157146 1.3333333
-17.814785 6.9545698 5.0266705 1.6666666
-17.345631 6.8652468 5.11696 0.5
-16.617672 6.9438992 5.0123796 4.5
-16.156982 6.9207087 5.0323339 1
-15.80002 6.8613195 5.0490036 1.4583333
-14.92548 6.9192376 5.0173135 1.8333334
-14.537107 6.880475 5.0417652 1.9583334
-14.123034 6.8757524 5.1006031 4
-13.841169 6.983377 5.0675945 7
-13.672026 6.9475403 5.0442019 5.75
-12.625338 6.8775578 5.0789175 1
-12.261904 6.9301248 5.0923672 7
-11.544867 6.8829556 5.0010738 4
-11.041612 6.9353323 5.1813293 0
-9.9481449 6.8348069 5.1673827 2.875
-9.483427 6.8042727 5.0710011 0
-5.6200404 6.8998418 5.0833645 12.5625
-5.5845098 6.8878717 5.030364 14.328125
-8.1776314 4.9867053 5.391593 11.541667
-5.5690212 4.9651527 5.3740644 1.275
-12.091069 5.1649394 5.282948 13
-9.0520248 5.022037 5.3446403 13.444444
-7.8624668 5.0071306 5.3817329 11.833334
-7.4070568 5.0121875 5.3655052 14.333333
-6.939939 5.0226674 5.399282 13.291666
-5.6587019 5.1797953 5.3675523 2.6208084
-10.148238 5.3910971 5.3818235 12.5
-8.0945473 5.3464284 5.3154631 10
-7.8039494 5.3634753 5.3219681 14
-7.571732 5.366601 5.3298044 6
-7.3773365 5.2886477 5.3777556 11.5
-6.3355813 5.3133483 5.3822303 12.541667
-17.445965 5.5327334 5.3018446 7.5
-17.19108 5.517776 5.2678347 10
-15.796821 5.4302063 5.3008895 11.625
-11.819013 5.4437833 5.367733 14
-5.6629171 5.4372888 5.336031 2.309633
-16.931259 5.6381717 5.3462782 10.25
-16.250431 5.745986 5.3090329 12.34375
-15.470015 5.6209211 5.3134856 13
-14.582517 5.7739778 5.3756881 14
-13.810625 5.6356945 5.378767 11.5
-12.717422 5.6176243 5.3910427 14
-18.027271 5.8184614 5.3816533 8
-5.5975828 6.2136312 5.2845564 11.894792
-17.575802 6.7914248 5.2789321 0
-14.993656 6.7849631 5.3695493 0.041666668
-14.290547 6.7658033 5.3383245 0
-13.383691 6.7284632 5.3035979 1.5
-13.031524 6.757782 5.2881346 0.75
-12.549757 6.7517328 5.3951631 0.58333331
-10.17228 6.7163086 5.3256297 0.27777779
-9.7852201 6.7792897 5.3005586 2
-7.4835644 6.7746716 5.3275485 6
-6.6242828 6.7093248 5.3134732 3.625
-6.3755565 6.7255497 5.2217751 6
-5.7287149 6.7405281 5.259304 5.9375
-17.301039 6.955914 5.3246121 3.7916667
-17.071247 6.9698715 5.3455162 3.75
-14.158319 6.9769831 5.3191347 7
-13.848063 6.9219503 5.3053331 4
-12.928477 6.9295735 5.2868972 5.2777777
-12.637007 6.9258428 5.3209395 7
-12.557241 6.9016314 5.3675613 4.25
-11.43065 6.8796959 5.3315573 1
-10.695088 6.821435 5.313139 1
-9.8946867 6.8327398 5.3372927 2.875
-8.2480869 6.8193908 5.258575 7
-6.2707977 6.8046322 5.2522869 7
-5.6221008 6.8846374 5.3433809 12
-5.5935354 6.8818717 5.3254457 12.625
-10.577627 4.9908686 5.4299889 14.333333
-9.4959755 4.9430871 5.4502168 14
-5.679265 4.9205761 5.5049133 2.875
-11.364885 5.1754408 5.4495425 14
-10.215887 5.0534639 5.4913726 13.75
-9.8134117 5.0522647 5.4116464 12.645833
-8.7082596 5.031209 5.4229946 13.395834
-6.6155157 5.0216947 5.4360952 13
-6.2233372 5.0125942 5.4193869 14.25
-5.6727433 5.1353159 5.5325203 10
-14.840576 5.2821808 5.5737629 12
-13.319715 5.3400044 5.4180946 12.777778
-9.6960793 5.3761988 5.4945211 11.5
-9.3392372 5.356442 5.4653039 12.0625
-9.1174831 5.3809166 5.4723721 12.166666
-8.5748653 5.3219242 5.4710097 14.175926
-7.0150414 5.3974142 5.4627562 14
-6.5216675 5.3602824 5.4656873 14.5
-5.608572 5.3401432 5.5539184 3
-5.5698075 5.3923473 5.4259067 3.3611112
-16.683487 5.5463924 5.5246687 11
-16.046371 5.5215592 5.4345341 10
-15.324871 5.5883489 5.4806581 7
-14.6084 5.5171638 5.4178677 11.5
-14.131783 5.5018783 5.4019723 11
-13.796141 5.5325813 5.4803481 13.166666
-13.006816 5.4965243 5.4150105 11.625
-12.582283 5.5168691 5.4116702 14.041667
-12.173428 5.5265908 5.4354725 13.625
-11.370669 5.5364165 5.473805 14.5
-10.885026 5.4687514 5.4231644 12.5
-10.57094 5.4076977 5.4545255 14.375
-17.798548 5.7048378 5.4865189 10.875
-17.293564 5.6044083 5.4042411 6
-16.51442 5.7477341 5.488924 12.5
-15.884109 5.6619453 5.4404693 11.25
-14.876444 5.6188745 5.5140805 13
-14.335328 5.6831465 5.4010773 12.75
-13.22401 5.6223445 5.4891481 15
-12.969983 5.7397375 5.4912806 14.583334
-5.5705161 5.7570691 5.4161549 4.729167
-5.6878128 5.8600802 5.4392734 0.96121603
-5.6625781 6.1461153 5.5442953 11.4375
-5.6705756 6.2859592 5.5371385 7.3462605
-5.6626663 6.563468 5.4776239 8.2797432
-5.5853372 6.5474844 5.5033417 10.320312
-15.779613 6.7571402 5.5000381 0
-15.34029 6.7658606 5.4154539 0
-14.631193 6.7680049 5.4341431 0
-13.762503 6.7566648 5.4139314 0.75
-12.32349 6.7032819 5.4461541 0.25
-11.642754 6.7456079 5.447515 0.5
-11.336434 6.748116 5.497973 1
-11.007941 6.7019477 5.4170513 0.38888893
-10.566465 6.666306 5.5039082 0.5
-9.8377028 6.7404766 5.4039221 1.0520834
-9.325016 6.6990595 5.4026299 0.5
-8.9954386 6.6970654 5.428854 0.625
-8.7146549 6.7147985 5.5154405 1.5625
-8.2324142 6.6654196 5.418108 0.25
-7.7979536 6.7534275 5.4818783 3
-7.0127516 6.7557144 5.461935 6
-6.1516256 6.7562914 5.4175344 4.5625
-5.6654434 6.7114191 5.5144687 9.1061096
-18.089977 6.9892645 5.4020224 2
-16.660442 6.9934855 5.4729052 1.5
-16.21747 6.9217505 5.4300232 1.2777778
-15.763567 6.9486055 5.4659386 4.1875
-15.382888 6.8621922 5.449985 1.3333334
-14.5886 6.9743519 5.4707999 5.869792
-14.333041 6.9157324 5.449297 4
-13.452457 6.9781733 5.4396591 4.1666665
-12.701987 6.8652124 5.4513969 2
-12.335165 6.8492336 5.4934626 1.125
-11.967962 6.9068284 5.4088917 1
-10.877625 6.9500604 5.4511061 0
-10.15184 6.8404217 5.4470444 2.75
-9.2993603 6.8207884 5.4111199 0
-8.6126213 6.8477325 5.4539204 7
-7.8293724 6.8021021 5.5488186 3
-6.8703637 6.8005857 5.5345297 2
-6.4638681 6.822494 5.4712563 7
-6.2417564 6.8223572 5.4839926 7
-5.6481781 6.8940849 5.4852381 12.48892
-5.615778 4.7696524 5.7491226 0
-5.6814499 4.9585505 5.7563238 1.5224457
-5.566236 4.9195724 5.7039862 1.5
-12.210872 5.196003 5.7584715 13
-9.856657 5.07687 5.7511959 13.777778
-8.1339951 5.0131497 5.7635775 11.694445
-7.7749538 5.0395789 5.7782869 11.555555
-6.9413781 5.0236278 5.7302566 14.333333
-6.5830421 5.049684 5.7893791 12.555554
-6.1625323 5.0391021 5.7532392 14
-5.8124661 5.0465388 5.7708731 15
-5.6390553 5.1547709 5.7609463 2.3723907
-5.5608482 5.0723267 5.7161493 2
-8.1878338 5.3678865 5.7756672 9
-7.8688927 5.3675976 5.7108841 13.645834
-7.3585448 5.3188806 5.7850056 12.583334
-6.52981 5.3263521 5.7823639 11.375
-5.6886196 5.3038678 5.7888699 1.5117478
-5.566905 5.3296633 5.7050824 3
-17.426785 5.4837193 5.7221594 9
-17.120441 5.5373955 5.6532135 10
-16.165859 5.4829044 5.7922916 10.5
-15.753014 5.5066304 5.6862411 10
-15.556362 5.5675159 5.7948198 11
-14.577882 5.5363951 5.7844334 11.5
-14.122448 5.5269413 5.7544165 11.375
-13.908073 5.507844 5.7573071 13
-13.462597 5.4069748 5.7716994 12.875
-12.181546 5.4822335 5.7900567 13.729167
-10.911703 5.5282688 5.735631 12.5
-5.7341661 5.4754658 5.7723055 1.218093
-5.5620613 5.51232 5.7028003 4
-17.920746 5.724431 5.7802811 10.875
-16.261734 5.6946449 5.7898793 12.333333
-15.759137 5.6584578 5.7688017 12.638889
-15.588753 5.721992 5.7885017 11
-14.586353 5.737093 5.7628007 13.5
-13.854395 5.6511631 5.7205763 11.5
-13.314005 5.7137928 5.7715216 15
-12.987061 5.683671 5.7857232 13.875
-5.7176237 5.7720566 5.7406082 0.20739187
-5.5738931 5.6870313 5.6798239 4.5
-5.6960678 5.8609753 5.7091808 0.82482576
-5.562602 5.8653336 5.6646981 5
-5.7404232 6.0825243 5.7306995 1.8920596
-5.5759487 6.0729666 5.658216 6
-5.6821957 6.3214207 5.6633129 3.7212276
-5.5681534 6.2669811 5.6367912 7.875
-5.675251 6.5602064 5.6551323 5.1414962
-5.5954542 6.4736204 5.6478605 12.9375
-15.414073 6.7855897 5.7965355 0
-15.076713 6.7855463 5.6847186 0
-14.730645 6.7952156 5.6501584 0
-14.167179 6.7858267 5.7182689 0
-13.372588 6.7839813 5.7714329 1
-12.958639 6.725594 5.6523862 1
-12.184826 6.7481112 5.684721 0.625
-9.8173637 6.7291961 5.7973471 0.19444443
-8.9783154 6.7181435 5.7874975 0.25
-8.2731142 6.7196827 5.7904344 0.041666668
-7.7820454 6.7717223 5.7371535 4.625
-7.4308577 6.7344418 5.781045 3
-5.9212623 6.6324191 5.7879386 1
-5.7196674 6.6335316 5.6790938 5.3370109
-5.5892696 6.6951523 5.65732 11.75
-17.41114 6.9702168 5.7846556 3.875
-16.236622 6.9544802 5.720192 1.1666667
-15.774445 6.899375 5.736711 2
-14.564697 6.9145136 5.7739744 1.9570312
-13.895985 6.9462304 5.7814441 3.5
-13.351023 6.9121647 5.7853651 1.75
-12.852077 6.9634948 5.7190495 7
-12.621101 6.9275212 5.7138977 4.5833335
-12.156316 6.8518262 5.7640944 1.375
-11.243796 6.8982987 5.6467457 1
-10.551117 6.8866334 5.7748566 2.25
-9.0615759 6.8384209 5.7753315 0
-7.8596783 6.8193803 5.7096839 6
-6.2103872 6.8415823 5.7246304 6.9846172
-5.7213645 6.8753939 5.7130604 10.02717
-5.59482 6.9395952 5.648531 14.375
-11.854281 5.0702953 5.9052148 15
-11.288332 5.0299892 5.8840222 13.666666
-11.070555 5.0231495 5.8385487 14
-10.614691 5.0503111 5.8410358 12.5625
-10.218574 5.0876904 5.8857079 12.0625
-9.4120474 5.0142245 5.8030682 14.333333
-8.9913597 5.0523047 5.8406801 13.75
-8.7359886 5.0557017 5.8074231 13.5
-7.3582277 5.0300684 5.854847 14.5
-6.0306296 5.044095 5.8885059 14
-5.8772202 5.0931563 5.8763952 4.4919949
-5.7724667 5.1089001 5.8260489 2.5
-11.671892 5.3503733 5.8368945 13.625
-10.209464 5.3841887 5.8402576 13.083334
-9.3788462 5.3810425 5.8192911 11.625
-9.0394926 5.3857746 5.8230295 12
-8.5359173 5.3378153 5.8396797 14.055555
-6.2157044 5.3778348 5.8392916 13.384114
-6.0537691 5.3118153 5.9920235 8
-5.8919845 5.3042135 5.9293575 11.625
-5.6437702 5.3687825 5.8188295 12.375
-16.538177 5.5837831 5.8888645 11.5
-15.06697 5.4514747 5.8249006 9.5
-12.978888 5.5164633 5.8159475 11.59375
-12.586005 5.5546474 5.8693504 14.5
-11.483875 5.5644617 5.8339138 14.166666
-10.626133 5.4139919 5.8237925 13.888889
-9.7705574 5.4126706 5.8397131 11.4375
-6.9521351 5.4075384 5.8183255 13.880209
-5.6536341 5.4339085 5.807168 13
-18.02636 5.7154455 5.9038324 12
-16.883358 5.7694492 5.87115 11.625
-14.961699 5.7607274 5.9089689 13.333334
-14.067863 5.6480827 5.864778 11
-6.0430136 5.7499847 5.9770021 4.6583333
-16.586231 5.833909 5.8581853 13
-6.020196 6.2355871 5.9246492 3.1318924
-6.0295024 6.5792828 5.8533955 0
-12.684481 6.7657623 5.8585377 1.5
-11.930212 6.7555094 5.8754315 0.5
-11.32295 6.7576575 5.8480883 1
-10.932543 6.7575483 5.801795 1.5
-10.592069 6.7315526 5.8301148 0.5
-10.259781 6.7534037 5.9019036 2.5
-9.4551983 6.7356977 5.8685875 0.1875
-8.6086121 6.7210231 5.8488541 0.625
-6.1323233 6.6237593 5.9787083 5.1053262
-18.015219 6.9396458 5.8979306 1
-17.875282 6.9865718 5.9577608 1
-17.06715 6.9684796 5.888772 1.1666666
-15.038928 6.9855886 5.8112741 5.064815
-14.237837 6.9653239 5.8474932 4
-13.042212 6.9161453 5.8339453 3.8333333
-11.798105 6.8323154 5.9030266 0.66666663
-11.089093 6.9086428 5.8949885 1
-10.332415 6.9116745 5.9157634 3
-9.7909184 6.8343973 5.8080473 1.25
-9.4684429 6.8620119 5.8652215 0
-8.0820131 6.8237104 5.9458995 6
-7.8564625 6.8235497 5.8513341 0
-6.9951086 6.8297153 5.9280314 2
-6.6563263 6.8570967 5.9085703 7
-6.5666442 6.8451324 5.8070641 6.6666665
-6.2499218 6.8295336 5.9900436 6
-6.0053172 6.9242411 5.8623219 12
-5.9695826 6.9890862 5.8769932 12.5
-11.676873 5.0446591 6.107286 13.666667
-10.607993 5.0790687 6.1436739 13
-8.6822739 5.0932765 6.1927519 11.833334
-8.0633812 5.0411892 6.1795297 11.666666
-7.7407966 5.0707936 6.1922569 11.166667
-6.4647264 5.0328789 6.1940441 15
-6.3406935 5.059649 6.1091523 13
-6.1763854 5.1151352 6.0824232 5.205729
-13.662548 5.2945147 6.0784855 13
-12.226286 5.3721972 6.11762 12.6875
-8.2850657 5.3947072 6.1835303 10.25
-7.8316154 5.3845158 6.0753555 13.25
-7.4283018 5.3922353 6.1763592 12.583334
-6.0806317 5.3302636 6.0717554 12
-17.348497 5.5080419 6.1844378 9
-17.028166 5.5627108 6.1388874 10
-16.28418 5.4664187 6.0545979 10.5
-15.689965 5.5295219 6.1129813 10
-15.487136 5.5806618 6.1118913 11
-14.157878 5.5091987 6.0924926 10.875
-13.357619 5.5064645 6.16254 11.5
-12.641397 5.489068 6.1553183 12.739583
-11.490377 5.4836168 6.1953316 13.5
-10.687126 5.4369688 6.073051 14.1875
-8.9597321 5.4026909 6.1851525 12
-6.202971 5.409606 6.1511741 14.5
-6.147007 5.4648485 6.0824947 6.6658421
-5.9590855 5.4481206 6.0160241 15
-16.664139 5.6624184 6.1476064 12.111111
-15.877707 5.6917858 6.1222281 11.75
-14.233784 5.6325684 6.1266756 13.375
-13.110899 5.6430035 6.1415186 14.5
-11.252766 5.6039014 6.1287155 10
-5.9847775 5.7187428 6.0176754 15
-6.1755834 5.8577933 6.0563765 0.97766954
-6.2940331 6.1715183 6.1195602 2.3871336
-6.2478247 6.5085196 6.0623751 4.217762
-14.620698 6.7802439 6.1744466 1
-12.597337 6.76159 6.0974612 1
-11.863131 6.7610936 6.124094 0.25
-11.03166 6.7553272 6.1574841 1
-10.538071 6.7433567 6.1130772 1
-9.3241215 6.761858 6.1387935 0.43055558
-8.9982252 6.747303 6.138195 0.41666666
-7.7061553 6.7531948 6.1099 0.70833331
-17.711397 6.9677958 6.1153355 1
-17.335747 6.9776926 6.1922884 1.5
-16.990099 6.940465 6.1569881 0.5
-12.497526 6.9108191 6.1523738 1.3333334
-12.160606 6.847363 6.1483932 1.2777778
-11.418118 6.9072647 6.1676636 1.75
-10.890323 6.884294 6.1923828 3
-9.8580265 6.8267488 6.1826696 3
-6.6567669 6.8658199 6.1807051 6.9310589
-6.2682734 6.90485 6.0587568 10.045445
-12.187838 5.0347347 6.2387214 13.5
-11.369482 5.0387983 6.3471861 9.5
-11.031816 5.0841212 6.2166271 12.629629
-10.285842 5.1430058 6.264782 13.770834
-9.7397499 5.0691338 6.2225523 12.541667
-9.3596458 5.056428 6.3073683 12.583333
-8.908308 5.0784321 6.2465019 14.340278
-7.4414396 5.0611305 6.2508574 13.583334
-7.1026802 5.04284 6.304513 14.5
-6.6410179 5.1327333 6.3433456 5.375
-6.5209165 5.1492887 6.3086653 1.6152344
-15.055933 5.3312564 6.2408419 12
-11.778398 5.3806286 6.2020521 13.75
-9.3728943 5.3971939 6.2099404 11.034721
-8.5023489 5.3569207 6.2277522 13.635417
-7.0452976 5.3432269 6.2236958 13.9375
-6.6121645 5.2573104 6.3690319 3
-6.4803228 5.3492002 6.2831669 10.75
-17.292446 5.515327 6.3849845 9
-16.557896 5.4994974 6.2852397 11.5
-12.956709 5.5640125 6.297358 12.5
-12.52703 5.5480981 6.3161864 6
-11.026521 5.4677267 6.2226377 14.125
-10.239661 5.4145775 6.2744727 12.333334
-9.7619781 5.4235115 6.2353048 11.875
-6.4631467 5.4382629 6.2566805 0.85821128
-6.3334732 5.4776802 6.2613235 15
-17.702511 5.7999878 6.2070031 7.6666665
-17.5952 5.7063761 6.3473053 7
-16.949589 5.7112637 6.270349 12.125
-16.712175 5.6289573 6.2186232 6
-16.194733 5.6925063 6.2445302 12.75
-14.556017 5.6571817 6.203855 13
-13.759148 5.6847386 6.2194514 8.666667
-13.411839 5.7763457 6.2445488 14.958334
-12.733038 5.6510301 6.2707262 12.5
-12.113515 5.6024394 6.3772516 9
